# .PCD v0.7 - Point Cloud Data file format
VERSION 0.7
FIELDS x y z
SIZE 4 4 4
TYPE F F F
COUNT 1 1 1
WIDTH 469
HEIGHT 1
VIEWPOINT 0 0 0 1 0 0 0
POINTS 469
DATA ascii
0.44077373 0.022825181 0.8494997
0.44110203 0.022932194 0.84949505
0.44167185 0.026641581 0.84945107
0.44204706 0.027915465 0.84946436
0.38683599 0.043363411 0.84907591
0.38669068 0.04364327 0.84903038
0.43824798 0.010904035 0.84985352
0.43678623 0.011391679 0.84979582
0.43725726 0.011257736 0.84987438
0.4377324 0.011259093 0.84982425
0.43579933 0.011626395 0.84998173
0.43855104 0.011807738 0.84982556
0.43194538 0.012495413 0.84992307
0.43206704 0.012456216 0.84994143
0.43274954 0.012378576 0.84995574
0.43366927 0.012412429 0.84998882
0.43863669 0.012221433 0.84987897
0.42839178 0.013457698 0.84998417
0.42887035 0.013411998 0.84995466
0.42932266 0.013305227 0.84997094
0.42826903 0.013718789 0.84995967
0.43905053 0.013819355 0.84987384
0.42526141 0.014298186 0.84998661
0.42618388 0.01430838 0.84998584
0.43950093 0.015641131 0.8497777
0.41796976 0.016399354 0.84999949
0.41809881 0.016461253 0.84997731
0.41859502 0.016366128 0.84999508
0.43956015 0.017162783 0.84993643
0.44007215 0.018390326 0.84970897
0.44011933 0.018758159 0.84974188
0.4401938 0.019295694 0.84974498
0.44019857 0.019715792 0.8497442
0.44019917 0.02024357 0.84974056
0.44058439 0.021111256 0.8497448
0.39683056 0.021968564 0.84982306
0.39730704 0.021939738 0.8498131
0.39642915 0.022290247 0.84982961
0.39672723 0.022132576 0.84986132
0.3971985 0.02209972 0.84986669
0.4407514 0.022242805 0.84966171
0.39585131 0.022923555 0.84998208
0.39623609 0.022621039 0.84988219
0.44105822 0.02315091 0.84958333
0.44114849 0.0237759 0.84961689
0.44123149 0.024345146 0.84965682
0.44160685 0.025263038 0.84956521
0.44165346 0.025777692 0.8496328
0.44162971 0.026099248 0.84969676
0.44175157 0.026829643 0.84962338
0.38872302 0.04268086 0.85040039
0.38926703 0.042659611 0.85032898
0.38972455 0.042658485 0.85030264
0.39017066 0.042554002 0.85038394
0.33227694 0.043115806 0.85017145
0.38815382 0.043135386 0.85028458
0.31652766 0.043788306 0.85018337
0.32500705 0.043994114 0.85011113
0.33186868 0.043830279 0.85024089
0.38560724 0.043939356 0.85012126
0.32565519 0.044413511 0.85019457
0.33132431 0.044230461 0.85018164
0.38422689 0.044144738 0.85028964
0.31706327 0.044663936 0.85026777
0.32579282 0.044686958 0.85021496
0.32919216 0.044971913 0.85006505
0.38174671 0.044694956 0.85017771
0.38272759 0.044609476 0.85014832
0.32628548 0.045290593 0.85021675
0.32672668 0.045239441 0.8502084
0.32720324 0.045314953 0.85012889
0.32768872 0.04527092 0.85018992
0.32899946 0.045000918 0.8501296
0.32933718 0.045056537 0.85016727
0.38063079 0.045159351 0.85011566
0.38132006 0.045028567 0.85023034
0.3169046 0.045547828 0.85012668
0.37718266 0.045762725 0.85010976
0.3781451 0.045688134 0.8501429
0.37971124 0.045530796 0.8501026
0.31716809 0.046348013 0.85017645
0.37576064 0.046228148 0.85010952
0.31779358 0.046696711 0.85012829
0.37373379 0.046747696 0.8501398
0.37524739 0.04661113 0.85012728
0.3736833 0.047089286 0.85011005
0.3697224 0.047725052 0.850133
0.37027246 0.047742978 0.85012192
0.37074515 0.047719896 0.85014701
0.36963114 0.048205219 0.85006708
0.31760827 0.048990488 0.85003686
0.36676925 0.048727177 0.85010946
0.36822045 0.048579447 0.85010457
0.36852607 0.048569478 0.85001183
0.31784588 0.049147386 0.85007679
0.36569771 0.049078736 0.8501491
0.36632332 0.049031168 0.85010201
0.31834325 0.04967111 0.85007745
0.44201139 0.027110599 0.84966385
0.44218358 0.028258814 0.8496322
0.44176063 0.028691716 0.84968424
0.44074926 0.02919169 0.84960109
0.44119704 0.029126992 0.84966773
0.44157562 0.029044865 0.84969634
0.43768388 0.029662294 0.84982079
0.43924677 0.029663825 0.84972519
0.43973461 0.029557442 0.84961796
0.43710941 0.030107703 0.8497898
0.43425623 0.030717541 0.84971082
0.4352299 0.030687487 0.84962928
0.43224838 0.031244012 0.84972352
0.43274242 0.031216362 0.84971261
0.43412566 0.031085156 0.84966111
0.43024015 0.031707443 0.849729
0.43074062 0.03173919 0.84973556
0.43123695 0.031718936 0.84971118
0.43173695 0.031668268 0.84968799
0.4321751 0.03155911 0.84969693
0.42975435 0.032163773 0.84969008
0.42670128 0.032751456 0.84988344
0.42825797 0.032601342 0.84978694
0.42572901 0.033169027 0.8498174
0.4262422 0.033103287 0.84988308
0.42425984 0.033558946 0.84981263
0.42486632 0.033527706 0.84972084
0.42170122 0.034163803 0.84984136
0.42219254 0.034148548 0.84983289
0.42317757 0.034052078 0.84983003
0.41975403 0.034730401 0.84983093
0.42022404 0.034649868 0.84981096
0.4210546 0.034525789 0.84979594
0.41909605 0.035067327 0.84987676
0.41575998 0.035684805 0.84993041
0.41671762 0.035602596 0.84991997
0.413257 0.036296677 0.84994638
0.4147 0.036129009 0.84990758
0.41219506 0.036697816 0.849931
0.41277528 0.036609083 0.84996063
0.41313711 0.036555629 0.84996235
0.41066331 0.037172884 0.84994823
0.40778866 0.037813578 0.84995431
0.40873432 0.037701115 0.84999514
0.40927288 0.037639786 0.84997219
0.40970868 0.037578378 0.84995431
0.410173 0.037521116 0.84990525
0.40770459 0.038053688 0.84996778
0.40278125 0.039213579 0.84996343
0.40189499 0.039539292 0.84997272
0.39884722 0.040186051 0.84998316
0.32531878 0.044160612 0.84997624
0.3777253 0.04571934 0.84998345
0.37054783 0.047655981 0.84997094
0.31774789 0.048972428 0.84998178
0.36838198 0.048516043 0.84999359
0.31782529 0.049124189 0.8499639
0.36324266 0.049719241 0.85012829
0.36417544 0.04962723 0.85007751
0.36467993 0.049590863 0.85004711
0.36305019 0.050021239 0.85006893
0.35926685 0.050655376 0.85016745
0.36131141 0.050549354 0.85005081
0.35674787 0.051163837 0.85014319
0.35622182 0.051672507 0.85006601
0.31854498 0.05226649 0.85003775
0.35425001 0.052088857 0.85009974
0.35475114 0.05209206 0.85010552
0.35511652 0.052087635 0.85004747
0.35222542 0.052682649 0.8500728
0.35328907 0.052585673 0.85005558
0.35355741 0.052591495 0.85001636
0.35161057 0.053057235 0.85008663
0.34826145 0.053650361 0.8500706
0.34921134 0.053628314 0.85006934
0.35026428 0.053531758 0.85009098
0.34683147 0.054104544 0.85010642
0.3471885 0.054144315 0.85008788
0.34775314 0.054040778 0.85005838
0.31899732 0.054758176 0.85003877
0.34567937 0.05458957 0.8500582
0.31910482 0.055086728 0.85002035
0.34318659 0.055167772 0.85006523
0.34080461 0.055835541 0.85004783
0.34168628 0.055588573 0.85004663
0.34222254 0.055513833 0.8500908
0.34254715 0.055536062 0.85005891
0.31975895 0.056089986 0.85007632
0.33973408 0.056079794 0.85009378
0.32040134 0.056816548 0.85005695
0.33718023 0.056950565 0.85004598
0.33865395 0.056595478 0.85002249
0.32018739 0.057443552 0.85000294
0.33577031 0.057162479 0.85002571
0.33708614 0.057008795 0.85004544
0.31987676 0.05782013 0.85003191
0.33481753 0.057527758 0.85002482
0.33515775 0.057523146 0.85005677
0.33070979 0.058172341 0.85011137
0.33122092 0.05823623 0.85009623
0.33174413 0.05820908 0.85007095
0.33222902 0.058111332 0.85005629
0.3326118 0.058109105 0.85006839
0.32977775 0.058679577 0.85004973
0.330212 0.058742303 0.85005158
0.33058563 0.05875656 0.85004425
0.32728052 0.059226841 0.85007668
0.32868552 0.059075709 0.85006928
0.32043618 0.059670374 0.85001338
0.32082149 0.060391478 0.85002548
0.32373634 0.060261756 0.85006255
0.32587308 0.060021564 0.85004926
0.32044956 0.060625885 0.85015535
0.3212696 0.060652748 0.85011941
0.32084748 0.06108515 0.85003519
0.32101551 0.061070763 0.85001981
0.40138683 0.020450525 0.85065401
0.40212107 0.020385321 0.85062522
0.39992654 0.020933788 0.85051954
0.4008975 0.020798605 0.85053819
0.40127376 0.020771526 0.85062551
0.39278492 0.022900071 0.85050988
0.38876545 0.023972148 0.85053331
0.39034358 0.023670092 0.85052234
0.38692617 0.024440389 0.8507328
0.38499627 0.024987973 0.85052562
0.38530266 0.024873696 0.85053444
0.38570344 0.024832763 0.85058522
0.38330689 0.025409477 0.8505289
0.38422871 0.025345445 0.85054779
0.38197112 0.025813207 0.85057497
0.38268685 0.025796635 0.85052973
0.38034835 0.026380453 0.8505227
0.38863465 0.042803481 0.85050923
0.36470842 0.049174327 0.84996396
0.36333805 0.049594987 0.84994823
0.36442026 0.04951166 0.84994757
0.36209378 0.050313007 0.84997076
0.36110064 0.050576046 0.84998184
0.35791597 0.051193099 0.84997672
0.35535768 0.051849019 0.84996253
0.35592568 0.05155614 0.84995484
0.35627413 0.051632438 0.84997261
0.3549791 0.052041098 0.84997237
0.35269934 0.052662272 0.84997475
0.35323828 0.052605052 0.84998131
0.35106617 0.053085495 0.84999382
0.31881613 0.053857915 0.84993911
0.34870964 0.053636838 0.8499462
0.34932652 0.053554248 0.84999084
0.34778291 0.054018442 0.84997207
0.34582818 0.05461029 0.84996784
0.34603089 0.054538958 0.84995246
0.31922999 0.055193771 0.84996462
0.34325129 0.055233944 0.84998387
0.3445158 0.055030495 0.8499921
0.34143123 0.055677876 0.84995705
0.34165844 0.055713579 0.84996706
0.33946174 0.056398232 0.84996611
0.3396889 0.056310773 0.84997141
0.34007207 0.056057885 0.8499465
0.3382383 0.056638855 0.84996402
0.3352246 0.057262097 0.84993404
0.33574742 0.057204477 0.84995997
0.33629808 0.057067856 0.84996432
0.33661762 0.057097923 0.84996432
0.32001871 0.057681896 0.84997129
0.33376157 0.057595432 0.84997845
0.33431903 0.057597771 0.84996569
0.31990933 0.058378018 0.84995896
0.33134025 0.058080211 0.84996426
0.33303961 0.058123708 0.84996837
0.32021797 0.058592122 0.8499853
0.32967004 0.058724817 0.8499794
0.32680526 0.059210386 0.84987497
0.3282983 0.059165567 0.84994709
0.32926637 0.059041966 0.84996259
0.32957068 0.059050739 0.84998375
0.3203232 0.059582319 0.84995747
0.3262403 0.059735104 0.84996903
0.32662398 0.05953614 0.84998387
0.32764018 0.059525158 0.84997106
0.32082897 0.060382944 0.84997767
0.32425007 0.060170621 0.84991825
0.32146251 0.060632806 0.84996951
0.32183361 0.060818493 0.84994167
0.32226905 0.060779326 0.84993029
0.32264057 0.060595479 0.84991127
0.32084233 0.061070286 0.84998876
0.43611676 0.011375671 0.85001671
0.43788874 0.011043683 0.85000396
0.43397188 0.011890382 0.85025668
0.43572202 0.011743469 0.85006654
0.43235755 0.012400001 0.85006362
0.43376479 0.012268842 0.85011649
0.43118796 0.012749439 0.85002595
0.43187121 0.012611527 0.85002005
0.42865723 0.013366235 0.8500514
0.42923248 0.013312344 0.85005635
0.43015584 0.013161152 0.85002506
0.43870178 0.013277091 0.85007477
0.42634889 0.013945502 0.8500762
0.42730123 0.013814131 0.85005969
0.42774665 0.013676902 0.85004991
0.42413706 0.014484916 0.85023212
0.42476207 0.014413799 0.850115
0.42526802 0.014363746 0.8500852
0.42624548 0.014212237 0.85005349
0.4223282 0.014980823 0.85020447
0.42282531 0.014918804 0.85024732
0.42326218 0.014824963 0.85022455
0.42078328 0.015448989 0.85010356
0.4212769 0.015394248 0.85007042
0.42226088 0.015252598 0.85019511
0.41886979 0.015955426 0.85012579
0.41977215 0.015831972 0.85011029
0.41687095 0.016471483 0.85013682
0.41719419 0.016429355 0.85011494
0.41774094 0.016401568 0.85011208
0.41575909 0.016852263 0.85016918
0.41678679 0.016700335 0.85014439
0.41378811 0.017340094 0.85026956
0.41474509 0.017253179 0.85017359
0.41282004 0.017840108 0.85016763
0.40932894 0.018463474 0.85026681
0.41030669 0.018331114 0.85021514
0.41124806 0.018260999 0.85013711
0.4082669 0.018834932 0.8503136
0.40876868 0.018750684 0.85029906
0.40576962 0.019440016 0.85027403
0.40628731 0.019373128 0.85024226
0.40422207 0.019937115 0.85021561
0.40483037 0.019821029 0.85029089
0.40526375 0.019736703 0.85027379
0.4057532 0.019745519 0.85026419
0.40326291 0.020262316 0.85035753
0.40374827 0.020256547 0.85027134
0.39942104 0.021392716 0.85026616
0.39941889 0.021634072 0.85034788
0.41170207 0.036816142 0.85003483
0.412278 0.036751065 0.85003954
0.41321114 0.036551908 0.85002899
0.33934411 0.037378848 0.85033166
0.33966878 0.037364088 0.85027206
0.34202656 0.037121128 0.85022461
0.41043043 0.03722322 0.85002691
0.33697256 0.03796237 0.85025501
0.33787182 0.037800621 0.85027421
0.33828706 0.037760209 0.85025865
0.33852306 0.037702836 0.8502292
0.33927029 0.03762098 0.85033089
0.40824777 0.037730694 0.85003084
0.33625665 0.038415108 0.85027617
0.40631706 0.038114272 0.85024315
0.33323377 0.038938154 0.8502962
0.3337585 0.038896922 0.85032701
0.33556619 0.03867773 0.85020989
0.40375531 0.038694378 0.85016853
0.40466872 0.03863214 0.85027665
0.40532166 0.038540382 0.85032326
0.40557712 0.038507275 0.85030282
0.40272275 0.039199136 0.85004848
0.40325826 0.039143737 0.85008365
0.40364563 0.039130781 0.85006332
0.39974201 0.039733484 0.85010552
0.40121353 0.039692473 0.85005963
0.40261146 0.03950882 0.85003221
0.39961675 0.040090326 0.85014272
0.33329573 0.04089658 0.85023427
0.3967534 0.040739071 0.85013711
0.39823136 0.040548842 0.85007286
0.33288786 0.041329343 0.85019785
0.39513814 0.04117645 0.85018468
0.3962549 0.041106392 0.85008061
0.39664894 0.041055448 0.85012949
0.32228538 0.041966777 0.85021883
0.32265306 0.041887272 0.85026652
0.39225855 0.041731555 0.85025889
0.3932409 0.041733131 0.85013407
0.39374557 0.041671392 0.85017437
0.39469886 0.041567888 0.85018581
0.32307985 0.042208627 0.85023898
0.33278242 0.042218037 0.8502841
0.39076281 0.042137723 0.85041648
0.39219236 0.042068657 0.85030109
0.31840223 0.042969175 0.85029382
0.31864244 0.042925812 0.85023373
0.32052428 0.042560428 0.85021615
0.32170302 0.042692952 0.85026294
0.32206148 0.042684436 0.85026991
0.3323563 0.042949647 0.85016251
0.33275265 0.042736076 0.85023719
0.39408535 0.022491895 0.85043043
0.39233136 0.022961896 0.85043448
0.39278653 0.022902461 0.85043055
0.39377052 0.022740804 0.8504445
0.39565748 0.022881627 0.8500185
0.39039522 0.023472749 0.85046136
0.39084014 0.023421438 0.85037977
0.39127943 0.023372546 0.85036135
0.39175007 0.023281906 0.85041863
0.39223215 0.023219796 0.85040861
0.38977957 0.023829952 0.85038078
0.38790664 0.024423661 0.85047483
0.38489172 0.024955502 0.85045129
0.38291207 0.025490142 0.85044408
0.38316685 0.025495037 0.85048211
0.38430491 0.025241401 0.85041207
0.38472545 0.025176225 0.8504346
0.38141876 0.025976107 0.8504504
0.38162622 0.02594764 0.85042322
0.38227442 0.025795611 0.85045791
0.37977812 0.026421765 0.85042065
0.38026488 0.026302952 0.85044384
0.38074523 0.026196528 0.85043949
0.38124937 0.026171656 0.8504408
0.37737232 0.026980335 0.85044038
0.37782142 0.026930464 0.85038376
0.37825081 0.026825638 0.8504349
0.37922442 0.02676167 0.85037625
0.37978679 0.026742017 0.85038716
0.37581241 0.027436472 0.85039753
0.37629306 0.027381586 0.85038769
0.37674206 0.027312433 0.85035688
0.37520134 0.02775263 0.85040677
0.37230662 0.028432699 0.85030633
0.37375599 0.028228849 0.85025615
0.37421545 0.028236346 0.85029984
0.36999786 0.028994597 0.85034919
0.37077731 0.028857633 0.85040289
0.37126571 0.028879702 0.85032862
0.36714822 0.029930664 0.85025746
0.43845874 0.029566366 0.85006243
0.36473489 0.030458197 0.8503027
0.36671004 0.030263966 0.85029262
0.36278534 0.030954313 0.85033846
0.36225408 0.031265836 0.85034758
0.36272529 0.03126714 0.85031188
0.36073515 0.031643484 0.8503533
0.35786384 0.032432545 0.85022163
0.35866272 0.032261267 0.85030514
0.35925266 0.032119147 0.85033828
0.35539427 0.032937709 0.85038024
0.35676253 0.032790031 0.85030383
0.35718319 0.032731384 0.85032141
0.4275572 0.032593921 0.85003537
0.3537192 0.033420164 0.85035104
0.35525471 0.033252321 0.85036469
0.35230353 0.033864275 0.85036558
0.35327289 0.033706106 0.850348
0.34987622 0.034435309 0.85030621
0.35010678 0.0344254 0.8503269
0.35085481 0.034255151 0.85034126
0.35166806 0.034110256 0.85034567
0.34833667 0.03492042 0.85030288
0.34918675 0.034817249 0.85027248
0.41792122 0.034945093 0.85000062
0.41844741 0.034937877 0.8500042
0.34668922 0.035394244 0.85034019
0.34742606 0.03538467 0.85027081
0.34777325 0.035381727 0.85024709
0.34445176 0.035952874 0.8503983
0.34554809 0.035651319 0.85035467
0.41570246 0.035698708 0.85002142
0.41627988 0.035735339 0.85000539
0.34424233 0.036455061 0.85029542
0.41408125 0.036133569 0.85002434
0.34135893 0.036876179 0.85032737
0.34166661 0.03692751 0.85023302
0.34234905 0.036600385 0.85031861
0.34275112 0.036672033 0.85031635
