# .PCD v0.7 - Point Cloud Data file format
VERSION 0.7
FIELDS x y z
SIZE 4 4 4
TYPE F F F
COUNT 1 1 1
WIDTH 945
HEIGHT 1
VIEWPOINT 0 0 0 1 0 0 0
POINTS 945
DATA ascii
0.0066681337 -0.063571326 -0.029188816
0.03386198 0.060965169 -0.020091824
0.032977823 0.060947716 -0.020003896
0.032697842 0.060933363 -0.019925658
0.032355923 0.060793821 -0.019896857
0.03596776 0.060180161 -0.020408891
0.036007222 0.060977004 -0.020358916
0.03524553 0.060371988 -0.020197706
0.034470372 0.061174814 -0.020180332
0.017124625 -0.062476832 -0.031369746
0.036212459 0.060640257 -0.020247445
0.03614863 0.060889788 -0.020293746
0.036125109 0.05855073 -0.02024461
0.036063801 0.058940984 -0.020296795
0.036092255 0.059446864 -0.02026429
0.036061618 0.060488023 -0.020315696
0.036072303 0.05837062 -0.020236298
0.035974786 0.058810227 -0.020242155
0.03627225 0.05797305 -0.020140227
0.036207855 0.058312289 -0.020151865
0.036278963 0.055458378 -0.020104028
0.036197953 0.055919677 -0.020127248
0.036271226 0.05685804 -0.019995593
0.036051907 0.05434835 -0.020214345
0.036111049 0.055267591 -0.020140117
0.036304865 0.055501409 -0.020039624
0.0363377 0.056357507 -0.019913759
0.036230221 0.053382456 -0.020031415
0.03616808 0.053777263 -0.020075846
0.036180839 0.052739833 -0.020024087
0.036162794 0.053189591 -0.020039847
0.036244988 0.051634654 -0.01993029
0.036264595 0.052590083 -0.019926284
0.036212638 0.049271785 -0.0199125
0.036223494 0.049731471 -0.019912921
0.022528972 -0.063980542 -0.031724624
0.03645096 0.047779128 -0.019683372
0.036364499 0.048195906 -0.019802516
0.036302276 0.049499225 -0.01981815
0.036293369 0.047100492 -0.019774096
0.036206927 0.048420176 -0.019852478
0.020781459 -0.0093031581 -0.02228093
0.036552597 0.047670707 -0.019594571
0.036548439 0.047888435 -0.019585058
0.036394097 0.046491969 -0.019648001
0.036268272 0.04582588 -0.019664615
0.021266686 -0.0084681474 -0.02213487
0.025310587 -0.063428424 -0.031247888
0.025257893 -0.063068718 -0.031222342
0.025340136 -0.062311791 -0.031066529
0.025132235 -0.063620292 -0.031345963
0.021474151 -0.040891033 -0.02668976
0.021567069 -0.039240394 -0.026367694
0.021594753 -0.039056964 -0.026337259
0.022989467 -0.054085568 -0.02929407
0.036703277 0.044611659 -0.019358594
0.036657348 0.045028538 -0.019391341
0.036536179 0.042943817 -0.019438595
0.036471438 0.043382678 -0.019494263
0.036535501 0.043883059 -0.019423628
0.036511846 0.044372719 -0.019461656
0.022199674 -0.021299094 -0.023470294
0.021995205 -0.024637967 -0.023901841
0.025954273 -0.060098216 -0.030428562
0.022155028 -0.03350918 -0.025231693
0.025776125 -0.061083756 -0.030600451
0.025834344 -0.060693882 -0.030523267
0.02541833 -0.063050888 -0.031083444
0.025430568 -0.062508069 -0.031012304
0.025563108 -0.062103789 -0.030835692
0.025257681 -0.063220099 -0.031108361
0.024376005 -0.057350192 -0.029842932
0.036738914 0.042027377 -0.019280223
0.036651149 0.04242906 -0.019365914
0.036618017 0.042790931 -0.019363474
0.036648095 0.040009707 -0.019289527
0.036618274 0.041302565 -0.019271508
0.036595695 0.041806094 -0.019310223
0.036549203 0.042309709 -0.019365806
0.024360573 -0.001746376 -0.021174157
0.023719653 -0.011178203 -0.022044824
0.023087539 -0.013970364 -0.022521831
0.022958342 -0.016749609 -0.02274452
0.022900451 -0.016874213 -0.022754421
0.023231722 -0.03028501 -0.024558103
0.023275573 -0.028709078 -0.024343381
0.026035622 -0.060428545 -0.030361949
0.026047116 -0.060064297 -0.030298106
0.02604693 -0.059657894 -0.030268524
0.026034135 -0.059278451 -0.030222934
0.025817744 -0.06152847 -0.030541856
0.025931353 -0.0610287 -0.03047872
0.025962913 -0.060237918 -0.030323301
0.036778014 0.03974691 -0.019130321
0.036808256 0.040302083 -0.019070763
0.036711667 0.037780847 -0.01909171
0.036733236 0.038225494 -0.019072479
0.023543037 -0.029295061 -0.024279386
0.023270488 -0.027561465 -0.024109066
0.023420479 -0.03189528 -0.024773745
0.023402974 -0.030529581 -0.02452768
0.023276074 -0.030364843 -0.02451076
0.023412554 -0.029215621 -0.0242627
0.023285765 -0.028797999 -0.024285445
0.023185801 -0.031397931 -0.024653137
0.024652554 -0.046966992 -0.027446587
0.024609461 -0.04766738 -0.027519617
0.02458822 -0.047021825 -0.027402582
0.036943536 0.036766075 -0.018875239
0.02433867 -0.023194229 -0.02325885
0.037040744 0.034198463 -0.018686561
0.03697174 0.035059053 -0.018720787
0.036950812 0.036390778 -0.018766675
0.036932401 0.033439316 -0.018717356
0.028330076 0.0028336565 -0.020067222
0.028336596 0.002998292 -0.020041896
0.028237404 0.0017332556 -0.020160068
0.028022597 0.0025956878 -0.020022431
0.037176408 0.033709142 -0.018567676
0.037123866 0.034547746 -0.018565439
0.037072714 0.032466576 -0.018545354
0.032724176 0.019687368 -0.0189083
0.03234059 0.016559066 -0.01893712
0.037270613 0.031023301 -0.018383829
0.037297349 0.031438909 -0.018264633
0.037264273 0.032241546 -0.01840122
0.037177719 0.029451076 -0.018340036
0.037164558 0.031261586 -0.018367393
0.037451793 0.030571403 -0.018143578
0.037461914 0.030678075 -0.018132135
0.03752533 0.031598516 -0.018044563
0.037407961 0.028459726 -0.018094081
0.037372023 0.02881667 -0.018113872
0.037308831 0.029329631 -0.018200297
0.03730154 0.029729247 -0.018207593
0.037356216 0.030388292 -0.018192636
0.032485727 0.011548883 -0.018872943
0.037565656 0.027877256 -0.017976001
0.037530601 0.025432896 -0.017934196
0.037517089 0.025799824 -0.017906616
0.037458435 0.027647804 -0.017979611
0.037359979 0.024798371 -0.018020999
0.032802574 0.0096163908 -0.018647894
0.032559484 0.0087410063 -0.018764447
0.032658916 0.0091016218 -0.018627793
0.037574962 0.026066538 -0.017805589
0.037440337 0.024353916 -0.017910041
0.037502021 0.025127839 -0.017867349
0.054487903 -0.0095340349 0.0035062924
0.054553796 -0.0090325326 0.0035805239
0.054229259 -0.01151932 0.0032289601
0.054356381 -0.010563367 0.003368268
0.054420989 -0.010143414 0.0034376145
0.054011501 -0.013510654 0.0030007493
0.054153178 -0.01209004 0.0031482296
0.053837527 -0.015516127 0.0028255768
0.053793363 -0.015725281 0.0027789292
0.05362881 -0.018120794 0.0026214626
0.055159912 -0.0059779333 0.004265327
0.054948859 -0.0075165946 0.0040592272
0.055004679 -0.0070067723 0.0041079228
0.054992285 -0.0066458341 0.0040756194
0.054699924 -0.0082090162 0.0037511995
0.05370535 -0.019730488 0.002758712
0.053741865 -0.019282382 0.0028026989
0.053775139 -0.01876067 0.0028404146
0.053816214 -0.018310547 0.0029048049
0.053739607 -0.017872659 0.0027588606
0.053650565 -0.020840812 0.0027009184
0.05364849 -0.020322889 0.0026883068
0.053633377 -0.02000263 0.0026679453
0.055525076 -0.004996933 0.0047263494
0.0556035 -0.0045032725 0.0048024189
0.055345889 -0.0051582176 0.0044849333
0.053703152 -0.023882922 0.0028239321
0.053697135 -0.022912836 0.0027986295
0.053663082 -0.022555113 0.0027532191
0.056227848 -0.0023055486 0.0055351006
0.056207683 -0.0019751061 0.0054794424
0.05607697 -0.0030347346 0.0053952718
0.053849071 -0.02532668 0.0030202069
0.053775296 -0.025234146 0.0029385141
0.056918722 0.00053499546 0.0062942491
0.056704715 -0.00046342146 0.0060724365
0.05678862 6.9240574e-05 0.0061462615
0.056882691 0.0003993907 0.0062519591
0.053968593 -0.027541555 0.0032195798
0.053986982 -0.02655293 0.0032481188
0.054030955 -0.026028015 0.0033421465
0.057367891 0.0017758464 0.0068064909
0.057384066 0.0018969201 0.0068397103
0.057171322 0.001019001 0.0066129989
0.054021016 -0.028313024 0.0033007739
0.057753637 0.0029252721 0.0072773574
0.054341577 -0.029643571 0.0037696646
0.058097027 0.0035088169 0.0077204313
0.054494616 -0.031719241 0.0039511533
0.054519478 -0.031227229 0.0039986568
0.054517172 -0.032199383 0.0039854543
0.058541864 0.0044747661 0.0082813827
0.058601484 0.0050110822 0.0082902564
0.058667403 0.0053960355 0.0083478997
0.054705516 -0.033297472 0.0042340714
0.054625537 -0.032429699 0.0041300235
0.059043121 0.006012491 0.0088181915
0.059127625 0.0064550154 0.0088925045
0.054969758 -0.03466415 0.004578623
0.054917078 -0.034351386 0.0045210142
0.054920513 -0.033845216 0.0045409976
0.059885681 0.0079923095 0.0098115075
0.060034856 0.0084262723 0.0099645043
0.055360023 -0.036391824 0.0051154885
0.055371054 -0.03593149 0.0051601902
0.055279255 -0.036531344 0.0050037382
0.060440764 0.0093859155 0.010448718
0.060247827 0.0083665475 0.010334206
0.055644009 -0.037349422 0.0054933578
0.055465136 -0.037127353 0.0052412981
0.060985792 0.01044911 0.011071747
0.060636252 0.0098617338 0.010679687
0.05580245 -0.038564935 0.0056993123
0.055825718 -0.038064264 0.0057736943
0.061348282 0.011020108 0.011561038
0.061183728 0.010506006 0.011411333
0.056056559 -0.03963374 0.0060293879
0.061393507 0.010591449 0.011654847
0.061521359 0.0110335 0.011859402
0.061636932 0.011414567 0.011970321
0.056293257 -0.041095942 0.0063319281
0.061903253 0.011668878 0.012268756
0.062197551 0.012798106 0.012569849
0.061678037 0.011183589 0.012055608
0.05653752 -0.042122159 0.0066619143
0.056506 -0.041768868 0.0066394024
0.056462266 -0.042155501 0.0066649923
0.05648971 -0.041944388 0.0067295665
0.062549256 0.013470162 0.013033728
0.062313486 0.01281497 0.012796031
0.056730133 -0.04234146 0.0069818553
0.056683123 -0.04374332 0.0068624346
0.056704413 -0.0428738 0.0069603939
0.056624833 -0.042336401 0.0069095744
0.063176163 0.015497357 0.013683243
0.062936053 0.014417801 0.013503527
0.062624291 0.013566099 0.013169626
0.056911349 -0.043909512 0.0072418032
0.056780681 -0.042971164 0.007101641
0.063786663 0.018734789 0.014405113
0.063791774 0.019060412 0.014464154
0.063608512 0.018016238 0.014275896
0.063708425 0.018512264 0.014386153
0.063753761 0.018829463 0.014484474
0.063308224 0.015521247 0.013945668
0.063374154 0.015969371 0.014027197
0.063446537 0.016479088 0.014112349
0.063262448 0.017415045 0.014357142
0.062897675 0.016344134 0.014379437
0.062865265 0.01681293 0.014466418
0.062914208 0.017239548 0.014549822
0.062589668 0.01573224 0.014423764
0.06229594 0.015562838 0.014534634
0.061614722 0.012081195 0.014186792
0.061657872 0.013360159 0.014473498
0.061324753 0.01099186 0.014172803
0.061282076 0.011969707 0.014340013
0.061322656 0.012373226 0.014411981
0.061062705 0.0094301691 0.014032731
0.060708899 0.0093695624 0.014183
0.06069928 0.010187623 0.0142636
0.060502019 0.0081717409 0.014092034
0.059533831 0.0031528655 0.013696906
0.059438817 0.0050024479 0.014032674
0.059297539 0.0010908842 0.013411813
0.059139911 0.0030163142 0.013795557
0.059133988 0.0034671789 0.013882226
0.059182022 0.0043203668 0.014042661
0.05906171 -0.00090179686 0.013180277
0.059090707 -0.00046340609 0.013264802
0.059104823 1.1780765e-05 0.01337765
0.058798131 -0.0024717473 0.013072045
0.058846153 -0.0020214589 0.013130907
0.058785077 -0.0010538194 0.013325462
0.058599666 0.00038831681 0.013578465
0.058595125 0.0017374498 0.013829177
0.058512557 -0.0039928905 0.01285781
0.058544453 -0.0035742973 0.012993613
0.058526814 -0.0026175585 0.013170135
0.058397442 -0.0016570552 0.013326494
0.058335401 -0.0011574449 0.013427233
0.05830865 0.00023478502 0.013669957
0.058247607 -0.0051124361 0.012795706
0.058288097 -0.0046342053 0.012861308
0.058241438 -0.0036891191 0.013098882
0.058165807 -0.0031838785 0.013215334
0.058022562 -0.0017547375 0.013439063
0.058018509 -0.0013085962 0.013483632
0.058075938 -0.0057211095 0.012862904
0.057950653 -0.0047066472 0.013021046
0.057798151 -0.0043165078 0.01311061
0.057807643 -0.0077459491 0.012582853
0.057747331 -0.0067737247 0.012855613
0.057459183 -0.0053793341 0.013051442
0.057466611 -0.0043395041 0.013190879
0.057476286 -0.0040139942 0.013224149
0.057562578 -0.0088366084 0.012562435
0.057550546 -0.008352207 0.012712053
0.057123281 -0.0069353092 0.013028163
0.057331838 -0.011336171 0.01221297
0.057375383 -0.010407636 0.012436693
0.057394002 -0.010037425 0.012501485
0.057151929 -0.0092665572 0.012667005
0.056816898 -0.0083770268 0.012831191
0.057119086 -0.013797002 0.011913847
0.057126828 -0.013381025 0.011974966
0.057118598 -0.012900953 0.012046028
0.057125498 -0.011912439 0.012313168
0.057035118 -0.011465425 0.012370848
0.05663798 -0.0095194932 0.012780238
0.056648988 -0.0090363286 0.01284734
0.056919906 -0.015893042 0.011663985
0.056931552 -0.014471639 0.01191189
0.056988623 -0.013975725 0.012053669
0.05686783 -0.013020834 0.012202365
0.056562826 -0.011974974 0.012438442
0.056441594 -0.0097794831 0.012826444
0.056751896 -0.016952211 0.011616764
0.056716479 -0.016033337 0.011793909
0.056602895 -0.01500746 0.012018472
0.056503069 -0.014579719 0.012089109
0.056186929 -0.013098063 0.012393899
0.056186207 -0.012633607 0.012458608
0.056215778 -0.011717644 0.012659037
0.056419507 -0.016583389 0.011849571
0.056075301 -0.016145747 0.011977544
0.05597885 -0.014639561 0.01222691
0.055982366 -0.014169359 0.012301856
0.056449365 -0.022014856 0.010989953
0.056410395 -0.021553913 0.011022535
0.056324534 -0.020091671 0.011320328
0.055836197 -0.017187014 0.011930533
0.055805609 -0.016220158 0.012097944
0.055814184 -0.015744004 0.012133988
0.056289367 -0.023576951 0.010780303
0.056096442 -0.021648495 0.011214729
0.055648398 -0.017742481 0.011946457
0.055669628 -0.017460065 0.012026905
0.056196958 -0.026615351 0.010383312
0.055959597 -0.024174903 0.010865284
0.055578023 -0.022216959 0.011252793
0.055489134 -0.02172076 0.011392571
0.055534195 -0.020765759 0.011520812
0.055504397 -0.020297831 0.011632902
0.056120247 -0.02961099 0.010021362
0.056040645 -0.028151104 0.010248253
0.055926852 -0.027186878 0.010447174
0.055696514 -0.025738593 0.010705195
0.055485222 -0.023743853 0.011105664
0.056227308 -0.032136496 0.0095160874
0.055990204 -0.031138204 0.0098841526
0.055959679 -0.030693458 0.0099522229
0.055789847 -0.029713752 0.010101499
0.055676181 -0.028731352 0.010262914
0.055592574 -0.028278053 0.010365335
0.055450577 -0.026801806 0.010626053
0.055338327 -0.025020173 0.011005023
0.056155112 -0.035149463 0.0091854576
0.056108668 -0.034655221 0.0092711346
0.055923238 -0.033180602 0.0095694605
0.055588283 -0.032744333 0.0096486369
0.055580027 -0.031722996 0.0098710554
0.055339828 -0.029289426 0.010278327
0.055345863 -0.028840618 0.010311784
0.055274837 -0.028331125 0.010475842
0.055275626 -0.028003931 0.010493712
0.057000205 -0.045404024 0.0073740855
0.056998596 -0.04497014 0.0073790299
0.056722481 -0.042959429 0.0077549135
0.056700401 -0.041526571 0.0081421454
0.056132805 -0.038667411 0.0086623877
0.055969693 -0.036631167 0.0090632401
0.055919431 -0.035728592 0.0092426809
0.055481713 -0.034254462 0.0095881997
0.055324323 -0.033321276 0.0096947988
0.055328853 -0.032824308 0.009801371
0.05529901 -0.03231759 0.0098777916
0.055265479 -0.031844724 0.0099515496
0.055240773 -0.031339876 0.010037608
0.055213917 -0.030883018 0.010133632
0.056739543 -0.047372952 0.0070700152
0.056854282 -0.045986738 0.0072296578
0.056864019 -0.045633916 0.0072847987
0.056703731 -0.045069911 0.007486959
0.056393787 -0.044092901 0.0077560414
0.056326296 -0.042652804 0.008006826
0.05620873 -0.042111009 0.0081169419
0.05602489 -0.041686051 0.0082002738
0.056059454 -0.041154362 0.0083764754
0.055823043 -0.040116381 0.0085039027
0.05586521 -0.039690189 0.0085797962
0.055741783 -0.039245352 0.0086519942
0.055670045 -0.038733333 0.0087476382
0.055643387 -0.038250212 0.0087962886
0.055555928 -0.037007317 0.0090551218
0.055402327 -0.036291558 0.0092747845
0.055373974 -0.035855517 0.0093272822
0.055341993 -0.035337538 0.0094188014
0.055273771 -0.034362845 0.0097028781
0.05522104 -0.033893038 0.0098075513
0.056576148 -0.049421653 0.0068959165
0.05657737 -0.049070589 0.0069328481
0.056647636 -0.048567235 0.0070141377
0.056775108 -0.048024394 0.0071622804
0.056692131 -0.047587465 0.0070751421
0.056358065 -0.046592675 0.0074000731
0.05615218 -0.046114482 0.0075017409
0.056168005 -0.045626633 0.0075543132
0.056075715 -0.044138007 0.0078486744
0.056023654 -0.043704182 0.0079058735
0.055771921 -0.042223267 0.0082518905
0.055697169 -0.041247111 0.0084086144
0.055620965 -0.040764406 0.008440475
0.055589952 -0.040223587 0.0085341185
0.055477448 -0.038981684 0.0088111842
0.056578234 -0.051022679 0.0068812827
0.056555413 -0.050542798 0.0069217831
0.056549028 -0.050089113 0.0069201337
0.056530863 -0.049619153 0.0069022886
0.056504142 -0.049184583 0.0070404429
0.056414321 -0.048648801 0.007100923
0.056374945 -0.048354335 0.0071373796
0.056149844 -0.046667442 0.0075817909
0.064131141 0.020560395 0.014859199
0.064280093 0.021544464 0.015021309
0.06432467 0.021903791 0.01502969
0.063807324 0.018985823 0.014534764
0.064024121 0.019535746 0.014761701
0.064123489 0.020393031 0.014959102
0.063445784 0.018073844 0.014530112
0.063633829 0.018557746 0.01456745
0.063759349 0.01926098 0.014765757
0.063030578 0.017542262 0.014598235
0.063244186 0.018215472 0.014721112
0.06298399 0.01768323 0.014722491
0.062469177 0.015857726 0.014569584
0.061711639 0.013683968 0.014552468
0.061057277 0.011483025 0.014457383
0.061340373 0.012426564 0.014509502
0.060919274 0.010916642 0.014431108
0.061035432 0.011276214 0.014471255
0.060672875 0.0078421049 0.014103355
0.060448576 0.0086186472 0.014309895
0.060001303 0.006639726 0.014254617
0.060108233 0.0069319233 0.014443559
0.059713464 0.0056323162 0.014147001
0.059663869 0.0036693236 0.013818321
0.059392225 0.0051788539 0.01416232
0.059092239 0.002689922 0.013891459
0.059098985 0.0027449711 0.013898701
0.059099689 0.0036163703 0.014074718
0.059194673 0.0044079954 0.014092688
0.058614861 -0.0028892132 0.013249659
0.056790769 -0.051052555 0.0072207572
0.056733627 -0.050749097 0.0071786726
0.056631245 -0.050365359 0.0071199322
0.06429176 0.020022489 0.01508425
0.06429562 0.021269256 0.015262993
0.064212918 0.019722031 0.015038775
0.064248875 0.019869749 0.015099435
0.064174466 0.020273238 0.015214713
-0.034335531 -0.061505932 -0.014436278
-0.057254322 0.062558986 0.012111383
-0.057373114 0.062521055 0.012052468
-0.057295825 0.062602222 0.012143327
0.031002522 0.060746349 -0.019741341
0.030909449 0.060647957 -0.019704349
0.029191814 0.061233222 -0.019273944
0.026441621 0.061122157 -0.018359121
0.025601504 0.061423868 -0.017990598
0.022320146 0.061302803 -0.016810488
0.020260517 0.061288144 -0.016078087
0.01330726 -0.061896898 -0.03090762
0.012978816 -0.062466033 -0.030967217
-0.052995123 0.062334236 0.0092228781
-0.056898147 0.062103197 0.010610391
-0.058869772 0.05522231 0.010332271
-0.058652483 0.056098867 0.010393802
-0.059469923 0.049118731 0.0096688056
-0.05949419 0.049110401 0.0096849874
-0.026988551 0.062164135 0.00018827431
-0.029867295 0.061945625 0.0012419876
-0.031174548 0.062027663 0.0017101029
-0.031904694 0.062178846 0.0020361384
-0.03212148 0.0621581 0.0020483946
-0.033325803 0.062053725 0.0025059832
-0.033651654 0.06213861 0.0026499582
-0.034417368 0.062189523 0.0029362896
-0.034483343 0.062181782 0.0029703667
-0.036146149 0.062069781 0.003504524
-0.037129994 0.06225048 0.0038302904
-0.037651088 0.062139746 0.0040086992
-0.038917601 0.062261891 0.0044906018
-0.039740708 0.062080525 0.0046247458
-0.040528875 0.062177699 0.005049794
-0.041236065 0.062294774 0.0052625136
-0.043459527 0.062302377 0.0060265223
-0.044913333 0.062125959 0.006470331
-0.045302741 0.0620635 0.0066263648
-0.045932304 0.062380686 0.0069420012
-0.046616971 0.06215724 0.007129278
-0.047404271 0.062477622 0.0072859162
-0.048410378 0.062336326 0.0076704333
-0.049204987 0.06225716 0.0079382863
-0.04936799 0.062537804 0.0079855891
-0.050822325 0.062454872 0.0086359903
-0.050948191 0.062330756 0.0086975079
-0.051400043 0.062617429 0.0087422021
-0.051626638 0.062572457 0.008828315
-0.052109919 0.062505595 0.0090816859
-0.053213648 0.062180601 0.0095382836
-0.054498687 0.06255696 0.0099536488
-0.05476211 0.062458768 0.010157718
-0.057282057 0.062488496 0.010918155
-0.057858907 0.062192831 0.011427223
-0.058056809 0.059933562 0.011014377
-0.058202229 0.060396459 0.011011924
-0.058258809 0.060845356 0.010983928
-0.058134116 0.061360218 0.011119684
-0.057991613 0.061818067 0.011299973
-0.058250032 0.05834613 0.011023664
-0.058254078 0.058835536 0.011021087
-0.058246318 0.059303172 0.011023016
-0.058238551 0.060288895 0.011037534
-0.058367062 0.057750154 0.010911074
-0.058448311 0.058203109 0.010803979
-0.058804654 0.055223644 0.01041389
-0.058860406 0.051875822 0.010075338
-0.058994595 0.053169426 0.010218208
-0.058911949 0.053673692 0.010311564
-0.058901604 0.054194074 0.010320834
-0.058846898 0.05458257 0.010399809
-0.059214815 0.051156998 0.0099821417
-0.059136294 0.051631905 0.010075951
-0.059263051 0.050091658 0.0099546695
-0.059265926 0.050920911 0.0099634631
-0.05944299 0.046614826 0.0096074594
-0.059462041 0.04701525 0.0097619453
-0.059415914 0.047526065 0.009806768
-0.059428371 0.048552189 0.0097851548
-0.059702735 0.045486897 0.0094969561
-0.05957514 0.046487853 0.009646262
-0.059904873 0.043427382 0.0092898486
-0.059806719 0.044917263 0.0094026281
-0.059842236 0.045235977 0.0093823932
-0.060054887 0.04099723 0.0090786247
-0.060049389 0.041892547 0.0091424761
-0.059990026 0.042405061 0.0092108268
-0.059963673 0.042855937 0.009244903
-0.060167041 0.040841892 0.0090320949
-0.060337596 0.036886275 0.0086489404
-0.060486753 0.037387308 0.0086608091
-0.060425505 0.038307291 0.0087527577
-0.060357962 0.038810447 0.0088323886
-0.060369082 0.039196655 0.0088255703
-0.060623892 0.03573567 0.008556637
-0.060539417 0.036764503 0.0086467173
-0.0605307 0.037199862 0.0086655188
-0.060820319 0.033743549 0.0083481204
-0.060712729 0.034713428 0.0084738508
-0.060899388 0.032659143 0.0082817646
-0.06121397 0.029657211 0.0079386104
-0.061092515 0.030585868 0.0080850609
-0.06140814 0.028062668 0.0077428981
-0.061330944 0.028562937 0.0078297239
-0.061490688 0.026154671 0.0076163881
-0.061442353 0.026647797 0.0076741101
-0.061490495 0.02747249 0.0076688132
-0.061760623 0.023853255 0.0073792711
-0.061880559 0.022688949 0.0072517758
-0.062163971 0.019978959 0.0069310898
-0.06217552 0.020454442 0.0069451863
-0.062097862 0.020906609 0.0070347372
-0.062010899 0.021787863 0.0071537513
-0.062346332 0.017946975 0.0067022382
-0.062336192 0.018247442 0.0067776982
-0.062306009 0.018718349 0.0068198112
-0.062227588 0.019485246 0.006904236
-0.062229771 0.01979192 0.006907152
-0.062498994 0.015806001 0.0064738211
-0.062557034 0.016214315 0.0065513435
-0.062412579 0.017801287 0.00671949
-0.062764838 0.014912423 0.0063366876
-0.062607273 0.015674032 0.0065024719
-0.062599413 0.016190084 0.0065641571
-0.062993787 0.0099117849 0.0058104564
-0.054585278 -0.051273175 -0.0061459327
-0.063916482 0.0026812917 0.0050803409
-0.063972771 0.0030062608 0.0050693112
-0.064014055 0.0028634267 0.0050624805
-0.05569797 -0.062374424 -0.0073402198
-0.064524174 -0.0030315546 0.0044487324
-0.064359009 -0.001604937 0.0046358272
-0.055766441 -0.06224566 -0.0072989566
-0.064761356 -0.0046017547 0.0042515225
-0.06478963 -0.0056162518 0.0041981246
-0.064855948 -0.0053567425 0.0041573797
-0.064806595 -0.0046745287 0.0042444444
-0.0650874 -0.0087714195 0.0038314164
-0.065077402 -0.0082654757 0.0039199949
-0.065002844 -0.0071803713 0.0040164753
-0.065287583 -0.010698964 0.0036083953
-0.065536723 -0.012365379 0.0034269681
-0.065424457 -0.011493638 0.003572823
-0.065645531 -0.014851597 0.0031766039
-0.065600663 -0.012395796 0.0034028292
-0.065890342 -0.016342187 0.003023121
-0.065855466 -0.015476871 0.0031269041
-0.065788388 -0.014962236 0.0031962008
-0.066126995 -0.017977413 0.0028307003
-0.065987103 -0.017101327 0.0029799577
-0.066304706 -0.019988831 0.0026459121
-0.066173285 -0.018842319 0.0027841828
-0.066491246 -0.021737073 0.0024634332
-0.066465683 -0.021206565 0.0024905754
-0.066389032 -0.020466372 0.0025740815
-0.06669791 -0.023515429 0.0022398813
-0.066666715 -0.023371682 0.0022830011
-0.066811979 -0.026097234 0.0019365274
-0.066887259 -0.025731415 0.0020353904
-0.066850185 -0.025056601 0.002091733
-0.066998795 -0.028112389 0.001684326
-0.067011878 -0.026726138 0.0019202281
-0.067202561 -0.028274667 0.0017208811
-0.067127392 -0.027857855 0.0018231219
-0.067437276 -0.031702921 0.0013680053
-0.067459755 -0.031307764 0.0014445204
-0.06744054 -0.030797243 0.001465962
-0.067569494 -0.034201786 0.0010443693
-0.067678869 -0.03325047 0.0012205886
-0.067633145 -0.032854516 0.0012776642
-0.067632638 -0.032367691 0.0012645987
-0.067536451 -0.031827547 0.001384465
-0.06750951 -0.031551667 0.0014355532
-0.067787603 -0.03577226 0.00085397763
-0.067887701 -0.035286423 0.00095510716
-0.067861013 -0.03494573 0.0010413625
-0.067758106 -0.033560056 0.001153437
-0.064807601 -0.062099125 -0.0039548706
-0.068281353 -0.039098397 0.00055385241
-0.068179049 -0.037840463 0.00070411945
-0.068184219 -0.037124425 0.00070887012
-0.068473086 -0.040924728 0.00039954809
-0.068461329 -0.040486924 0.00040805247
-0.068603024 -0.04303427 0.00017333403
-0.068699062 -0.043157469 0.00017911801
-0.068816043 -0.042653479 4.5537949e-05
-0.069041334 -0.046551865 -0.0001995936
-0.068967216 -0.045629434 -0.00011788867
-0.069182545 -0.049083266 -0.000611383
-0.069184467 -0.047766894 -0.00034165662
-0.069162399 -0.047188886 -0.00031755678
-0.067395382 -0.061726965 -0.002965387
-0.069355994 -0.050815601 -0.00066017499
-0.069405399 -0.049925651 -0.00056960108
-0.069321707 -0.048788924 -0.00047140988
-0.069492355 -0.051118698 -0.00066605303
-0.069805801 -0.053824235 -0.00099002942
-0.069778986 -0.05330912 -0.00096160732
-0.069711134 -0.05296386 -0.00087699015
-0.069944531 -0.054921053 -0.0011293134
-0.069985516 -0.054531924 -0.0011844793
-0.069549672 -0.062150571 -0.0022466453
-0.070226453 -0.057936791 -0.0014358768
-0.070183665 -0.05739595 -0.0013747197
-0.070164002 -0.056969326 -0.0013597105
-0.070149578 -0.056552473 -0.0013470175
-0.070106223 -0.056164071 -0.0012564762
-0.07041952 -0.060028672 -0.0016427254
-0.070415907 -0.05951117 -0.0016218713
-0.070373833 -0.059090026 -0.0015694145
-0.070613094 -0.061369315 -0.0018176707
-0.070542797 -0.06052196 -0.0017551864
-0.070473336 -0.060169794 -0.0016565761
-0.0049350108 0.061822265 -0.0073931301
-0.005832857 0.061671138 -0.0070457077
-0.0075373943 0.061837427 -0.0063972203
-0.010130786 0.061553009 -0.0055414047
-0.0104595 0.061868038 -0.0054321289
-0.010950949 0.061691716 -0.0052285893
-0.012134243 0.061866365 -0.0047844863
-0.013444179 0.06181718 -0.0043521505
-0.013675945 0.061670788 -0.0043030586
-0.014445427 0.061623652 -0.0040739514
-0.014529416 0.061965954 -0.0040562032
-0.014768726 0.061921604 -0.0039253207
-0.016722102 0.061682716 -0.0032899501
-0.016542159 0.061906122 -0.0032902304
-0.017571852 0.061793081 -0.0028687865
-0.020251425 0.061969526 -0.0020946981
-0.020397918 0.062127031 -0.0019975007
-0.020593125 0.062073074 -0.0019441461
-0.021782044 0.06201572 -0.001511313
-0.02364786 0.061763477 -0.00089329667
-0.0070899618 0.061629601 -0.0065095657
-0.0075726211 0.061822079 -0.0062995907
-0.0078045111 0.06138147 -0.0062713912
0.0097099468 -0.064373828 -0.030559279
0.008183388 -0.063821465 -0.029846616
0.0066296812 -0.063641511 -0.029234633
0.0058316486 -0.063174397 -0.029004317
0.0019722562 -0.063140377 -0.02763769
-0.0013263309 -0.064064465 -0.026729088
-0.0021957932 -0.062036134 -0.025957171
-0.004525004 -0.061127737 -0.024902493
-0.024948154 0.061848108 -0.00041056611
-0.025089875 0.062103204 -0.00029994082
-0.026451189 0.061946053 0.00015204959
-0.027373027 0.061977208 0.0004324466
-0.027779482 0.062082455 0.00065277424
-0.03089186 0.06208327 0.0016900189
-0.031640004 0.062271707 0.0019596964
-0.039945863 0.062099058 0.0050115203
-0.027484201 -0.062146056 -0.017068066
-0.035124987 -0.062934965 -0.014437782
-0.037438318 -0.062973551 -0.013688352
-0.039402597 -0.060446113 -0.012636653
-0.057475686 0.062665209 0.011881187
-0.058111928 0.058575064 0.011182049
-0.059329212 0.047432799 0.0099404389
-0.043662023 -0.061644871 -0.011259199
-0.044134025 -0.062055368 -0.011205343
-0.044166818 -0.062330741 -0.011151293
-0.044727247 -0.062836118 -0.011120109
-0.044667669 -0.062706605 -0.011103516
-0.047849171 -0.045689106 -0.0074392571
-0.048230551 -0.045698002 -0.0073417365
-0.060498934 0.036211688 0.0087363664
-0.048547968 -0.04566776 -0.007163486
-0.060751677 0.033505253 0.0084518045
-0.046959475 -0.062020183 -0.010165911
-0.060864054 0.032671325 0.0083536189
-0.060811196 0.03326543 0.0084203538
-0.061120644 0.029196085 0.0079946285
-0.061093945 0.030248601 0.0080835121
-0.061058782 0.03085961 0.0081621129
-0.061242647 0.028650615 0.0079138502
-0.050750826 -0.046126153 -0.0065363026
-0.061279763 0.024574587 0.0076982365
-0.061371647 0.025079578 0.0076888455
-0.061440554 0.025514979 0.0077445493
-0.061434217 0.025987577 0.0077513042
-0.061404038 0.026991634 0.0077766809
-0.050902501 -0.046219856 -0.0064621605
-0.06188222 0.022346601 0.0072669345
-0.061800711 0.022931799 0.0073644314
-0.049728449 -0.062600024 -0.0092513319
-0.049865935 -0.061826631 -0.0091722226
-0.062129598 0.020046737 0.0069970749
-0.062173106 0.016990203 0.0066812853
-0.062203269 0.019285724 0.0069443039
-0.062205162 0.019739905 0.0069698435
-0.06248343 0.01591818 0.0065855896
-0.062493607 0.016286884 0.0066337246
-0.062416248 0.016775141 0.0067231711
-0.062410329 0.01765104 0.0067448588
-0.062643163 0.014202728 0.0064918934
-0.062642127 0.014641195 0.0064842994
-0.062603317 0.015300114 0.0065267533
-0.062561356 0.016044412 0.0066057299
-0.053908207 -0.047866318 -0.0055979812
-0.053979509 -0.047517519 -0.0056212684
-0.053963345 -0.047055393 -0.0056073293
-0.053816877 -0.046492834 -0.0054751155
-0.06287621 0.012339368 0.0062294099
-0.054069988 -0.048961978 -0.0057377638
-0.062950298 0.0097162351 0.0059949867
-0.063004263 0.010229224 0.0061095087
-0.062934116 0.010617089 0.0062040761
-0.062891334 0.011126598 0.006250957
-0.062930882 0.011625978 0.0061968341
-0.053002596 -0.060452826 -0.0078482321
-0.054371595 -0.051602051 -0.0061005196
-0.054541122 -0.050102897 -0.0058430079
-0.063190654 0.0081415121 0.0059198448
-0.063080691 0.0095955767 0.0060518091
-0.063087061 0.0099964691 0.0060483301
-0.053052746 -0.060505964 -0.0077856593
-0.054759525 -0.051046193 -0.00583567
-0.06331481 0.006520289 0.005816042
-0.06328135 0.0070330296 0.0058497656
-0.063281022 0.0075460253 0.0058439504
-0.063522458 0.0049872762 0.00559338
-0.063517451 0.0055015106 0.0055926959
-0.063723519 0.0025380151 0.005360961
-0.063660599 0.0039621778 0.00545352
-0.063622534 0.0042542778 0.0055198013
-0.063987494 0.00089341775 0.0050985818
-0.063957624 0.0014112806 0.0051267357
-0.063938886 0.0023575854 0.0051521529
-0.063958675 0.0027562073 0.0051533161
-0.064154916 -0.00063655712 0.0049233297
-0.064099208 -0.00012396742 0.00498656
-0.064431019 -0.0030984799 0.0046062181
-0.064444393 -0.0026771212 0.0046049999
-0.064390965 -0.0021717958 0.0046690954
-0.064613856 -0.0050780978 0.0044135014
-0.064542472 -0.0041020475 0.0045155082
-0.064525165 -0.0031890911 0.0045475657
-0.064829245 -0.0066863163 0.0042047971
-0.064736553 -0.0057839882 0.0043189442
-0.064718537 -0.005240784 0.0043437704
-0.064992011 -0.0083280168 0.0040473887
-0.064942174 -0.0073817475 0.0040980061
-0.064926505 -0.0068435087 0.0041316771
-0.065191492 -0.0098132752 0.0038280217
-0.065085009 -0.0093623614 0.0039616777
-0.0130798 -0.063310944 -0.022134893
-0.017835718 -0.063234843 -0.020584114
-0.020100586 -0.062736258 -0.019640803
-0.023866022 -0.062320527 -0.018238585
-0.027391899 -0.06283211 -0.017146815
-0.029988203 -0.061945938 -0.016068816
-0.065379448 -0.012777463 0.0034540428
-0.065398723 -0.011938651 0.0036130389
-0.065360598 -0.011348905 0.0036576914
-0.058626525 -0.061520129 -0.0060714725
-0.065582179 -0.014021222 0.003432591
-0.065540984 -0.01292724 0.0034742793
-0.065513611 -0.012622475 0.0035185053
-0.058716763 -0.061503582 -0.0059945853
-0.065813258 -0.01648668 0.0031610779
-0.065753847 -0.015492162 0.0032467004
-0.065743946 -0.014966825 0.0032645343
-0.065719776 -0.014641391 0.0032883328
-0.065937787 -0.017375568 0.0030523862
-0.065898046 -0.017028138 0.0031073093
-0.065827049 -0.016668327 0.0032080025
-0.066240646 -0.020097956 0.0027243961
-0.066181891 -0.019517049 0.0027978211
-0.066116504 -0.019074984 0.0028774529
-0.066103965 -0.018392881 0.0028995669
-0.066354118 -0.022070829 0.0026241236
-0.06632974 -0.021033043 0.002643575
-0.066285312 -0.020684488 0.0027051447
-0.06660603 -0.023736347 0.0023609006
-0.066501461 -0.023122331 0.0024786161
-0.066452578 -0.022657666 0.0025391795
-0.066444278 -0.022296857 0.0025570036
-0.066720478 -0.025285602 0.0022482262
-0.06703832 -0.027752541 0.0018931266
-0.066977471 -0.026768778 0.0019817189
-0.066917583 -0.026242165 0.0020456484
-0.067147397 -0.029020164 0.0018006105
-0.067121893 -0.028279277 0.0018269529
-0.067072265 -0.027866988 0.0019041849
-0.067350514 -0.031307459 0.001591906
-0.067295238 -0.030151054 0.0016496689
-0.067237854 -0.02991375 0.0017375106
-0.067537256 -0.032426454 0.0013958709
-0.067496657 -0.031530414 0.0014728745
-0.067724526 -0.034911118 0.0012005419
-0.06769143 -0.034361791 0.001236245
-0.067960292 -0.036606099 0.000952831
-0.064842097 -0.062150821 -0.0038803276
-0.06814304 -0.038901541 0.00076118391
-0.068142325 -0.038506769 0.00076102046
-0.06806571 -0.037555374 0.00084966142
-0.068292849 -0.041499622 0.00058734557
-0.068316363 -0.040713429 0.00058264239
-0.068294153 -0.039712787 0.00061351294
-0.068621054 -0.042982116 0.00024430174
-0.068596497 -0.042796098 0.00028765108
-0.068527795 -0.042106334 0.00035893684
-0.068765737 -0.044669203 0.00011161668
-0.066791371 -0.061871909 -0.0031561479
-0.068985462 -0.046732999 -0.00011965539
-0.068920389 -0.045749847 -4.3197069e-05
-0.068858527 -0.045130156 2.8374605e-05
-0.068866402 -0.044862978 4.3085776e-05
-0.066848181 -0.062076639 -0.0030408092
-0.069162406 -0.048268564 -0.00030216295
-0.069107696 -0.04775757 -0.00024168426
-0.069077998 -0.047425397 -0.00021213666
-0.06733191 -0.061749533 -0.0029441435
-0.069370463 -0.050701953 -0.00053837197
-0.069370717 -0.050405897 -0.00051713502
-0.069305152 -0.049746782 -0.00044908095
-0.069250196 -0.048803616 -0.00037427526
-0.069801606 -0.054276131 -0.00096568
-0.069696575 -0.053510629 -0.0008536512
-0.069644108 -0.052813463 -0.0007944461
-0.069985501 -0.056279615 -0.0011610184
-0.069924161 -0.055833679 -0.0010958062
-0.069865815 -0.055431906 -0.0010309685
-0.069857113 -0.05481695 -0.0010173153
-0.069512308 -0.062101416 -0.002219364
-0.070364207 -0.059918314 -0.0015570894
-0.070341997 -0.059725527 -0.0015409775
-0.070250466 -0.058967184 -0.0014300505
-0.070245899 -0.058726609 -0.0014232984
-0.070482492 -0.061592396 -0.001666924
-0.070479065 -0.060531273 -0.0016421303
-0.070440546 -0.060143873 -0.0015957616
0.028575946 0.061188538 -0.019171406
0.028163454 0.061095484 -0.01902546
0.026596908 0.060981251 -0.018462956
0.026490431 0.061188649 -0.018449048
0.025589826 0.06136141 -0.018048031
0.022758516 0.061353847 -0.017060112
0.02237143 0.061267123 -0.01690422
0.021575009 0.061002381 -0.016687008
0.020993084 0.061137043 -0.016467957
0.020386778 0.061014377 -0.016240593
0.01899042 0.061157417 -0.015753159
0.018717077 0.061440885 -0.015544573
0.017344926 0.06147866 -0.01515887
0.016171087 0.061443657 -0.014668234
0.015523628 0.061335891 -0.014466196
0.014660854 0.061170395 -0.014235063
0.014782046 0.061551914 -0.014213623
0.014349842 0.061137132 -0.014148994
0.013066859 0.061376125 -0.013609674
0.011743957 0.061512645 -0.013116925
0.011303695 0.06144239 -0.01304802
0.010660345 0.061340328 -0.012821616
0.010342843 0.061313264 -0.012693206
0.010259536 0.061592259 -0.012673484
0.0095801791 0.061508402 -0.012446137
0.0086981924 0.061445102 -0.012130976
0.0079921484 0.061614178 -0.011757614
0.0069175679 0.061549101 -0.011439878
0.006691616 0.061507393 -0.011256046
0.0052769147 0.061389774 -0.010895377
0.0052002678 0.061555181 -0.010849914
0.0039033787 0.061738849 -0.010396536
0.0032408088 0.061630055 -0.010133402
0.0019792616 0.061579175 -0.0097883018
0.0019009542 0.061838478 -0.0097686518
0.00092149898 0.061684858 -0.0093371244
0.00026421528 0.061600931 -0.0091059413
-0.0014644405 0.061691426 -0.008563254
-0.0022251508 0.061604571 -0.0082554277
-0.0045319595 0.061616909 -0.0074220942
-0.0057465546 0.061551869 -0.007068797
-0.006023882 0.061670635 -0.0068851318
-0.00682654 0.061710067 -0.0066278866
