# .PCD v0.7 - Point Cloud Data file format
VERSION 0.7
FIELDS x y z
SIZE 4 4 4
TYPE F F F
COUNT 1 1 1
WIDTH 1299
HEIGHT 1
VIEWPOINT 0 0 0 1 0 0 0
POINTS 1299
DATA ascii
0.079801954 -0.0234024 0.018269684
0.079772443 -0.023451699 0.018250929
0.079751082 -0.023502976 0.01824471
0.079674564 -0.023592122 0.018177982
0.079643808 -0.02363595 0.018154917
0.079562165 -0.023780353 0.018106883
0.079489626 -0.023875589 0.01804865
0.07943622 -0.023965269 0.018015001
0.079310074 -0.024160404 0.017927621
0.079264536 -0.024195515 0.017879514
0.079237722 -0.024245452 0.017864883
0.079137132 -0.024385195 0.017787762
0.079084992 -0.024480328 0.017758481
0.079024725 -0.024573427 0.017716667
0.078961752 -0.024665875 0.017670667
0.078941628 -0.024722595 0.017668765
0.078913562 -0.02476709 0.01764982
0.078877397 -0.024809603 0.017618451
0.078842483 -0.024857592 0.01759145
0.078720517 -0.025048602 0.017508058
0.078623869 -0.025194462 0.017439432
0.07853429 -0.025326647 0.017374355
0.078433707 -0.025466397 0.017297296
0.078404211 -0.025515698 0.017278537
0.078375936 -0.025570409 0.017264098
0.078341216 -0.025608156 0.017232597
0.078213833 -0.025797848 0.017140901
0.078153558 -0.025890974 0.017099082
0.078045122 -0.026085328 0.017036473
0.077968612 -0.026174471 0.016969746
0.077920429 -0.026275687 0.016948901
0.077862889 -0.026369475 0.016911319
0.077818871 -0.026466556 0.016894409
0.077730075 -0.026557837 0.016811267
0.0777018 -0.026612546 0.016796827
0.077616215 -0.026750863 0.016740296
0.077482432 -0.026990358 0.016662927
0.077458322 -0.027040947 0.016652478
0.077403478 -0.027135402 0.016619019
0.077373989 -0.027184673 0.016600262
0.077286929 -0.027327757 0.016543927
0.077192999 -0.02747429 0.016479416
0.07716766 -0.027519437 0.016464658
0.077013455 -0.027759105 0.016358387
0.076937243 -0.027904797 0.016318658
0.076907724 -0.027954094 0.016299903
0.076843314 -0.028051328 0.016254151
0.076777622 -0.028143138 0.016204027
0.076737575 -0.028246321 0.016195666
0.076675862 -0.02834422 0.01615404
0.07663843 -0.028381318 0.016118353
0.076582126 -0.028480537 0.016085025
0.076523133 -0.028579097 0.016047636
0.076458961 -0.028732905 0.016028702
0.076405562 -0.028822556 0.015995057
0.076336995 -0.028923923 0.015945375
0.076278172 -0.029012278 0.015903361
0.076251402 -0.029062208 0.015888846
0.076230012 -0.029113503 0.015882572
0.076183066 -0.029220149 0.015865983
0.076151066 -0.029258536 0.015838604
0.07611616 -0.029306501 0.015811604
0.076083951 -0.029355131 0.015788728
0.076035745 -0.029456332 0.015767828
0.076015815 -0.029502798 0.015761368
0.075962238 -0.029602695 0.015732218
0.075938143 -0.029653322 0.015721824
0.075905941 -0.029701924 0.015698951
0.07586164 -0.029742476 0.015655154
0.075782515 -0.029897735 0.015615745
0.075737238 -0.029989405 0.015594518
0.07560569 -0.03018323 0.01549889
0.075552106 -0.030283127 0.015469743
0.075451769 -0.030479426 0.015419503
0.075429127 -0.030525248 0.015408926
0.075406313 -0.030581318 0.015402837
0.075378247 -0.030625815 0.015383894
0.075290985 -0.030779086 0.015332067
0.075264379 -0.030818809 0.015312929
0.075249679 -0.030876845 0.015319332
0.075189419 -0.030969976 0.015277511
0.075084649 -0.031113839 0.015196403
0.075064741 -0.031160345 0.015189997
0.075025924 -0.031268984 0.015185887
0.074953869 -0.031410586 0.015150143
0.074910827 -0.031456549 0.015110664
0.074835852 -0.031607717 0.015075247
0.074809045 -0.031657651 0.015060615
0.074754477 -0.031808674 0.015054092
0.074723519 -0.031862717 0.015035529
0.074641868 -0.032007113 0.014987439
0.074615091 -0.032057069 0.014972918
0.074584611 -0.032157466 0.014976793
0.074552394 -0.032206096 0.014953919
0.074510612 -0.032257505 0.01491875
0.074443944 -0.03240044 0.014891247
0.074381061 -0.032559682 0.014876748
0.074330181 -0.032660227 0.014851782
0.074282192 -0.032751217 0.014826376
0.074221753 -0.032854579 0.01478917
0.074173562 -0.032955784 0.014768269
0.074106887 -0.033098679 0.01474072
0.074084058 -0.033154748 0.014734635
0.074047893 -0.033197269 0.014703325
0.073991597 -0.033296488 0.014669998
0.073962092 -0.033345766 0.014651302
0.073928699 -0.033455729 0.014655495
0.073768415 -0.033801742 0.014590487
0.073677182 -0.033948954 0.014530158
0.073638588 -0.03404735 0.014521549
0.073571742 -0.034200512 0.014498608
0.073520847 -0.03430105 0.014473586
0.073468708 -0.034396142 0.014444253
0.073417813 -0.03449671 0.014419227
0.073206417 -0.034953505 0.014333691
0.073125064 -0.035154436 0.014312543
0.073098272 -0.035204392 0.014298023
0.073076896 -0.035255659 0.014291753
0.073026016 -0.035356227 0.014266725
0.072991088 -0.035404187 0.014239728
0.072948061 -0.035450153 0.014200245
0.072888069 -0.03559982 0.014185367
0.072835997 -0.035761725 0.014187469
0.07280013 -0.035860814 0.014183095
0.072729304 -0.036007844 0.01415161
0.072690204 -0.036059916 0.014120563
0.072639324 -0.036160454 0.014095541
0.072590165 -0.036312826 0.014097316
0.072568804 -0.036364101 0.014091099
0.072547406 -0.036415357 0.014084775
0.072480574 -0.036568489 0.01406184
0.072460629 -0.036614969 0.014055317
0.07243412 -0.036721498 0.014067739
0.072372407 -0.036819398 0.014026109
0.072350062 -0.036921792 0.014042461
0.072268195 -0.037076399 0.013998875
0.07223057 -0.037123673 0.013967639
0.072206482 -0.037174299 0.013957243
0.07213594 -0.037377894 0.013952697
0.072106466 -0.037427187 0.013934056
0.072063699 -0.037529748 0.013921509
0.072051674 -0.037588403 0.013931924
0.071990423 -0.037732653 0.013912729
0.071970321 -0.037789382 0.013910886
0.07194227 -0.037833881 0.013891941
0.071896799 -0.037935775 0.01387527
0.071838073 -0.038090881 0.013864706
0.071788423 -0.038196858 0.013843995
0.071763098 -0.038242046 0.013829285
0.07173261 -0.038342439 0.013833159
0.071689859 -0.038444974 0.013820617
0.071671166 -0.038496908 0.013818467
0.07162571 -0.038598802 0.013801796
0.071578786 -0.038705431 0.013785266
0.071536481 -0.038854331 0.013795098
0.071476318 -0.039014224 0.013784779
0.071418755 -0.03910803 0.013747141
0.071400091 -0.039159946 0.013745048
0.071279928 -0.039469533 0.013719847
0.071254373 -0.03952495 0.013709581
0.071194403 -0.039674625 0.013694756
0.07109192 -0.039983418 0.013694269
0.071078688 -0.040036656 0.013700484
0.070905671 -0.040549047 0.013695445
0.070886992 -0.040600982 0.013693293
0.070823833 -0.040703662 0.013651915
0.070799746 -0.040754281 0.013641459
0.070773214 -0.040860798 0.013653824
0.070602171 -0.041270919 0.013603595
0.070585221 -0.041374657 0.013628251
0.070570707 -0.041422468 0.013630092
0.07054247 -0.041477188 0.013615709
0.070510246 -0.041525818 0.01359283
0.070494287 -0.041578405 0.013594864
0.070465058 -0.041684244 0.013603047
0.070447847 -0.041731384 0.013600767
0.070418611 -0.041837253 0.013608949
0.070388138 -0.041937646 0.013612819
0.070364043 -0.041988265 0.013602367
0.070339955 -0.042038862 0.013591977
0.070321284 -0.042090796 0.013589825
0.070308022 -0.04214403 0.013596041
0.070234306 -0.042300634 0.013564933
0.070205078 -0.042406473 0.013573118
0.070208259 -0.042453494 0.01359967
0.070200421 -0.042508073 0.013614185
0.070125736 -0.042715807 0.013605701
0.070091084 -0.042820323 0.013605583
0.070081986 -0.042869452 0.013615729
0.070076868 -0.042924684 0.013634423
0.070025966 -0.043025248 0.013609398
0.070004597 -0.043076515 0.013603127
0.069984458 -0.043133225 0.013601168
0.069953017 -0.043284744 0.013627663
0.069939755 -0.043337997 0.013633817
0.069910258 -0.043387309 0.013615117
0.069850065 -0.043547187 0.013604743
0.06979917 -0.043647751 0.013579713
0.06979008 -0.043696884 0.013589855
0.069728643 -0.043851361 0.013575223
0.069683164 -0.043953244 0.0135585
0.069639437 -0.044106901 0.013568582
0.069599383 -0.044210073 0.013560164
0.06959153 -0.044264644 0.013574619
0.06959182 -0.044321243 0.013601549
0.069589391 -0.044377141 0.01362437
0.069403134 -0.044942763 0.013625547
0.069391124 -0.04500147 0.013636069
0.069360651 -0.045101892 0.013639936
0.069304891 -0.045314245 0.013660487
0.069279559 -0.045359392 0.013645723
0.069236793 -0.045461923 0.01363318
0.069231667 -0.045517176 0.013651812
0.06920632 -0.045562349 0.013637049
0.069187656 -0.045614265 0.013634961
0.069179796 -0.045668837 0.01364942
0.069122799 -0.045875777 0.013665652
0.069069766 -0.046088777 0.013690381
0.069070056 -0.04614535 0.01371732
0.069027297 -0.046247881 0.013704773
0.068955302 -0.046456277 0.013700414
0.068946205 -0.046505406 0.013710558
0.068932943 -0.04655866 0.013716707
0.068903446 -0.046607941 0.013698015
0.068890169 -0.046661191 0.013704168
0.068883792 -0.046710998 0.013718491
0.068872266 -0.046816021 0.01375139
0.068782575 -0.047025204 0.013722316
0.06873738 -0.04718367 0.01373259
0.068736397 -0.047234781 0.013755156
0.06870079 -0.047390427 0.013777664
0.068692945 -0.047444999 0.01379212
0.068671554 -0.047496263 0.013785852
0.068634212 -0.04760015 0.013781602
0.068619974 -0.047704525 0.013810383
0.068585351 -0.047809023 0.013810325
0.068578959 -0.047858819 0.01382459
0.068564251 -0.047916889 0.013830986
0.068493709 -0.048120484 0.013826441
0.068492733 -0.04817161 0.013849067
0.068459623 -0.048338108 0.0138802
0.068431579 -0.048382644 0.013861309
0.068406045 -0.048438005 0.013851047
0.068346061 -0.04858771 0.013836223
0.068322517 -0.048751421 0.013879593
0.068302862 -0.048854485 0.01390007
0.068248287 -0.049005505 0.013893545
0.06822817 -0.049062215 0.013891583
0.068211243 -0.049165923 0.013916242
0.068174921 -0.04942926 0.013988315
0.068149358 -0.04948464 0.013977995
0.068131454 -0.049639463 0.014025217
0.068096817 -0.049743995 0.014025156
0.068085015 -0.049792483 0.014031177
0.068066344 -0.049844388 0.014029032
0.068028986 -0.049948268 0.014024787
0.067989215 -0.050108038 0.0140433
0.067977682 -0.050213054 0.014076205
0.067968592 -0.050262194 0.014086408
0.067910142 -0.05047391 0.014102832
0.067890488 -0.05057694 0.014123312
0.067883894 -0.050636955 0.01414208
0.067860298 -0.050733931 0.014154116
0.067836486 -0.050841086 0.014170604
0.067796417 -0.050944287 0.014162181
0.067768939 -0.05110193 0.01419717
0.067752264 -0.051262192 0.014248706
0.067735046 -0.051309325 0.014246373
0.06769228 -0.05141186 0.014233831
0.067688406 -0.05147256 0.014256832
0.067665756 -0.051518377 0.014246194
0.067618623 -0.051779076 0.014301658
0.067613758 -0.051890854 0.014347173
0.067599528 -0.051995233 0.014375953
0.067576893 -0.052041061 0.014365369
0.067541771 -0.052099254 0.014342813
0.06751205 -0.052302569 0.014396055
0.067470528 -0.052410543 0.014387827
0.067447223 -0.052564062 0.014426805
0.067433931 -0.052617304 0.0144329
0.067415282 -0.052669257 0.014430864
0.067410141 -0.052724469 0.014449447
0.067411855 -0.052776262 0.014476194
0.067394443 -0.05283365 0.014478413
0.067374803 -0.052936681 0.014498895
0.067356624 -0.05303495 0.014519237
0.06735146 -0.053090189 0.014537813
0.06734363 -0.053144768 0.014552329
0.067326397 -0.05319193 0.014549986
0.067317113 -0.053251285 0.014564691
0.067291074 -0.053404141 0.014599431
0.067239486 -0.05361237 0.01462397
0.067234337 -0.053667609 0.014642546
0.067218378 -0.053720206 0.014644637
0.067203864 -0.053768005 0.014646422
0.067176647 -0.053982213 0.014708344
0.067160681 -0.054034799 0.014710379
0.067151591 -0.054083928 0.014720522
0.067146465 -0.054139189 0.014739212
0.067142777 -0.054189622 0.014757602
0.067100011 -0.054292183 0.014745055
0.067086749 -0.054345451 0.014751267
0.067078918 -0.054400019 0.014765723
0.067062929 -0.054452594 0.014767697
0.067048423 -0.054500416 0.014769597
0.06703791 -0.054764908 0.014878753
0.067008704 -0.054870754 0.014886992
0.066996194 -0.055026926 0.014942519
0.066985644 -0.055080827 0.014952855
0.066905111 -0.05545149 0.015012512
0.066902898 -0.055497177 0.015030826
0.066919416 -0.055557683 0.015082614
0.066910304 -0.055606842 0.015092753
0.066852838 -0.055767417 0.015086615
0.066845194 -0.05581177 0.015096564
0.066793889 -0.056076564 0.015148042
0.066769809 -0.056127183 0.01513759
0.066755846 -0.056288101 0.015193308
0.066741332 -0.056335941 0.015195144
0.066747025 -0.056393825 0.015230386
0.066747501 -0.056440149 0.015252825
0.066742353 -0.056495387 0.015271403
0.066707037 -0.056707609 0.015320905
0.066675574 -0.056859117 0.015347344
0.066638209 -0.056962986 0.015343042
0.066627674 -0.057016898 0.015353438
0.066632874 -0.057172254 0.015433677
0.066608071 -0.057330526 0.015472735
0.066589393 -0.057382457 0.015470583
0.066576138 -0.057435721 0.015476792
0.066547386 -0.05758791 0.015507413
0.066540815 -0.057647943 0.015526296
0.066529274 -0.057752978 0.01555914
0.066529751 -0.057799302 0.015581576
0.066489004 -0.058010198 0.015622716
0.066483356 -0.058162913 0.015686356
0.06647823 -0.058218129 0.015704993
0.066470385 -0.058272712 0.015719507
0.066429362 -0.058427043 0.015733711
0.066422269 -0.05858453 0.015797539
0.066424288 -0.058692865 0.015851229
0.066412471 -0.058741346 0.015857188
0.066408791 -0.058791816 0.01587563
0.066375889 -0.058948111 0.015902318
0.066348098 -0.059049174 0.015910316
0.066344216 -0.059109837 0.015933264
0.06633658 -0.059154205 0.015943276
0.066324562 -0.059212897 0.015953742
0.066329494 -0.059311695 0.016007099
0.06631352 -0.059364296 0.016009074
0.066301018 -0.059520449 0.016064662
0.066293173 -0.059575018 0.016079113
0.066306479 -0.059732359 0.016171785
0.066300094 -0.059782166 0.016186107
0.066201873 -0.060153618 0.016221048
0.066202343 -0.060199931 0.016243428
0.066204064 -0.060251728 0.016270176
0.066193521 -0.060305659 0.016280504
0.066191554 -0.060407896 0.016325703
0.066190876 -0.06051559 0.016375262
0.066184469 -0.060565356 0.016389534
0.066186219 -0.060617164 0.016416334
0.066146441 -0.060776934 0.01643485
0.066154048 -0.060876355 0.016492285
0.066148907 -0.060931604 0.016510917
0.066077679 -0.061242893 0.016555931
0.06608212 -0.061295338 0.016586861
0.066089258 -0.061348438 0.016621852
0.066093706 -0.061400883 0.016652782
0.066118829 -0.06150974 0.016739482
0.066096209 -0.061555605 0.016728956
0.066067956 -0.061610315 0.016714511
0.066006228 -0.061708216 0.016672885
0.06600526 -0.061759345 0.016695511
0.066005543 -0.06181591 0.016722446
0.066007264 -0.061867677 0.016749196
0.066018566 -0.061916679 0.016788179
0.066016138 -0.06197257 0.016810937
0.065985955 -0.062129542 0.016841803
0.065957949 -0.062384613 0.01692174
0.065974936 -0.062491503 0.016995959
0.065964378 -0.062545404 0.017006299
0.065956324 -0.06275402 0.017092749
0.065914318 -0.062959462 0.01712952
0.065884814 -0.063008741 0.017110828
0.065894678 -0.063062534 0.017150052
0.065906733 -0.063214406 0.017238414
0.065886602 -0.063271105 0.017236456
0.065858833 -0.06337218 0.017244507
0.065841883 -0.063475884 0.017269105
0.065825701 -0.063682497 0.017343076
0.065842681 -0.06378939 0.017417297
0.065821856 -0.064097598 0.017532397
0.065794073 -0.064198658 0.017540393
0.065737307 -0.064251564 0.017484684
0.065732643 -0.064353123 0.017525699
0.065698013 -0.064457655 0.017525638
0.065696046 -0.064559892 0.017570775
0.065699026 -0.064617127 0.017601831
0.065704927 -0.064664803 0.01763263
0.065690681 -0.064769141 0.017661352
0.065665632 -0.064870894 0.017673582
0.065644003 -0.065076187 0.017739194
0.065633461 -0.065130085 0.017749533
0.06563054 -0.065283455 0.017817348
0.065657109 -0.06538754 0.017903864
0.065654688 -0.065443426 0.017926622
0.065632045 -0.065489255 0.017916039
0.065584235 -0.066212028 0.018187325
0.065279067 -0.067092717 0.018167663
0.065308355 -0.067197442 0.018258303
0.065288685 -0.067300506 0.018278781
0.065288007 -0.067408197 0.018328341
0.065277644 -0.067451872 0.018334115
0.065240286 -0.067555755 0.018329876
0.065225601 -0.067613788 0.01833627
0.065211073 -0.067661591 0.018338054
0.065205947 -0.067716822 0.018356752
0.065191418 -0.067764655 0.018358532
0.065214299 -0.067919187 0.018463496
0.065213323 -0.067970298 0.018486064
0.06377621 -0.072570033 0.01860567
0.06375359 -0.072615884 0.018595081
0.062990859 -0.074237265 0.018273868
0.062987179 -0.07428775 0.018292367
0.062946893 -0.074544951 0.018355893
0.062939547 -0.074645892 0.018392839
0.062977403 -0.074798957 0.018518336
0.062988013 -0.074955627 0.018606884
0.063013345 -0.075054266 0.018689085
0.034298167 -0.076652214 -0.021291438
0.034158438 -0.077131681 -0.021264672
0.03381535 -0.077504903 -0.021576203
0.033807874 -0.077682823 -0.021503374
0.033651683 -0.077814147 -0.021663271
0.033060268 -0.078727543 -0.022073634
0.032900129 -0.079207122 -0.022075761
0.032848582 -0.079271562 -0.022118663
0.032779597 -0.079393387 -0.022159345
0.032732211 -0.079453699 -0.022198256
0.032375131 -0.080131657 -0.022386689
0.032498047 -0.080177143 -0.022190992
0.032395214 -0.080362558 -0.022249851
0.032338228 -0.08042568 -0.022301055
0.032247134 -0.080495849 -0.022397384
0.032186195 -0.080552854 -0.022457078
0.032057256 -0.080680519 -0.022580076
0.031985302 -0.080745108 -0.022651818
0.031921417 -0.081099302 -0.022576258
0.077029198 0.036275066 -0.013856896
0.077034764 0.036140177 -0.013785651
0.076699525 0.035112754 -0.013779046
0.076346897 0.03402796 -0.013770162
0.075686671 0.031231066 -0.013394066
0.075311288 0.03016725 -0.013427321
0.07514371 0.029442936 -0.013325108
0.075067364 0.029220216 -0.013328893
0.074781723 0.028509401 -0.013400453
0.074829116 0.028215326 -0.013195219
0.074810237 0.028153177 -0.013192864
0.074492887 0.026992988 -0.013098547
0.074062459 0.025824495 -0.013160699
0.07403817 0.025763694 -0.013166643
0.074042402 0.025701005 -0.013131215
0.073676571 0.024496181 -0.013084735
0.073621452 0.024458293 -0.013145133
0.07359194 0.024409022 -0.013163885
0.073577225 0.024350988 -0.013157481
0.073127508 0.022247337 -0.012808118
0.073177733 0.022029622 -0.012634704
0.073113292 0.02193236 -0.012680458
0.072533421 0.019850269 -0.012525853
0.072518811 0.019725449 -0.012488009
0.072303303 0.018843364 -0.01237976
0.072201185 0.018765628 -0.012488127
0.072148912 0.018593509 -0.012481521
0.072123379 0.018538108 -0.012491726
0.071926445 0.016922209 -0.012012726
0.07203047 0.016814595 -0.011814609
0.072012007 0.016562317 -0.011722431
0.07102792 0.013895942 -0.011866999
0.070802376 0.012703061 -0.011627086
0.070555121 0.01158223 -0.011451832
0.069977321 0.0093249977 -0.011212097
0.069899209 0.0079471171 -0.010676208
0.069872208 0.0078869537 -0.010686278
0.069784798 0.0078672161 -0.010800996
0.069585621 0.0076231714 -0.010969047
0.069507346 0.0070876135 -0.010828755
0.069561377 0.0069973697 -0.010709726
0.069096036 0.0064896727 -0.011131591
0.069026202 0.0063937586 -0.011185645
0.06910044 0.0062934412 -0.011033218
0.069157355 0.0062127542 -0.010914628
0.069063149 0.0054140417 -0.010673419
0.069055304 0.0053594606 -0.010658903
0.068964675 0.0048885471 -0.010566468
0.068953112 0.0046397313 -0.010466062
0.068916731 0.004586976 -0.01049293
0.068195999 0.0018973378 -0.010253033
0.08990261 -0.0074514053 0.024928611
0.089892082 -0.0075053186 0.024938997
0.089860044 -0.0075437226 0.024911564
0.089717343 -0.0078221252 0.024839779
0.089417979 -0.0085398816 0.024751987
0.089432053 -0.0086563174 0.024826594
0.088812187 -0.0096346652 0.024406413
0.088720724 -0.0099358791 0.024418032
0.088631615 -0.010114383 0.024375396
0.088576771 -0.010208838 0.024341932
0.088551402 -0.010254003 0.024327114
0.088335223 -0.010889374 0.024318662
0.085707225 -0.015310964 0.022665726
0.085222222 -0.01592168 0.022264287
0.084644765 -0.016674176 0.021798257
0.084227681 -0.017147452 0.021428742
0.065007046 -0.067680612 0.017879013
0.065008774 -0.067732371 0.017905768
0.063896827 -0.071815833 0.018244876
0.063875452 -0.071867108 0.018238602
0.063167714 -0.073738202 0.018112745
0.063003078 -0.07430914 0.018147204
0.062861823 -0.075645901 0.01857421
0.034085803 -0.077223904 -0.021508031
0.03402758 -0.077635944 -0.021397218
0.033915173 -0.077824175 -0.021468315
0.033682704 -0.078244984 -0.021600615
0.033225957 -0.079155378 -0.02182129
0.033245459 -0.079273142 -0.021738322
0.033165373 -0.079335734 -0.021822546
0.032941375 -0.07952749 -0.022050368
0.032914393 -0.079587661 -0.022060381
0.032598656 -0.080024071 -0.022303462
0.032566242 -0.080082916 -0.022321837
0.032550626 -0.080258846 -0.022261422
0.032224081 -0.081047028 -0.022354729
0.032126293 -0.081110403 -0.022463724
0.077182055 0.036476746 -0.013771575
0.077113613 0.036452375 -0.013857206
0.077046543 0.036289014 -0.013875696
0.077064149 0.036002226 -0.01371609
0.077021122 0.035956256 -0.013755572
0.076728731 0.035318967 -0.013871253
0.076696672 0.03513677 -0.013831249
0.076566763 0.034603577 -0.013765235
0.076578908 0.034528717 -0.013712872
0.076566711 0.034459796 -0.013697848
0.076452963 0.033989411 -0.013638427
0.076440953 0.033930704 -0.013627904
0.076309659 0.033325937 -0.01353032
0.076110132 0.032496482 -0.013424036
0.076044552 0.032127321 -0.013343832
0.076029852 0.032069284 -0.013337426
0.075942785 0.031571813 -0.013227439
0.075894512 0.031537417 -0.013279775
0.075833976 0.031500857 -0.013348538
0.075764336 0.031415161 -0.013407096
0.075674519 0.031128965 -0.013400163
0.075462535 0.030641515 -0.013472123
0.075430356 0.030382313 -0.013396116
0.075405009 0.030337138 -0.013410882
0.075383417 0.030275656 -0.013412647
0.075217552 0.029499575 -0.013283678
0.074953161 0.028763013 -0.013313087
0.074744113 0.028074531 -0.013286484
0.074648798 0.028067032 -0.013418186
0.074638039 0.028002886 -0.013403349
0.074661165 0.027791791 -0.013271443
0.074631743 0.027675729 -0.013258695
0.07464391 0.027600829 -0.013206282
0.074635863 0.027536044 -0.013187321
0.074614629 0.027351204 -0.013130648
0.074539699 0.026989471 -0.013067184
0.074489973 0.026950276 -0.013119334
0.074457578 0.026891416 -0.01313765
0.074426971 0.026713986 -0.013097778
0.074358456 0.026545851 -0.013116077
0.074347906 0.026491947 -0.013105741
0.074323602 0.026431117 -0.01311169
0.074237809 0.026282618 -0.013163712
0.074228585 0.026156452 -0.013117567
0.074228458 0.026079448 -0.013081562
0.074078605 0.025499778 -0.013022128
0.074061275 0.025375599 -0.012988411
0.074069612 0.025173258 -0.012881599
0.074011862 0.025069257 -0.012914676
0.073972791 0.02501718 -0.012945727
0.073907182 0.024858609 -0.012964346
0.073778339 0.024664115 -0.01305585
0.073765323 0.024199909 -0.012856429
0.073730409 0.024151955 -0.012883486
0.073683418 0.024112102 -0.012931398
0.073645942 0.023931224 -0.012899697
0.073726915 0.023757327 -0.012703152
0.073639736 0.023537274 -0.012723539
0.073616982 0.023414422 -0.012698185
0.073450454 0.023028867 -0.012753477
0.073445305 0.022973619 -0.012734841
0.073216051 0.02229522 -0.012741698
0.073189266 0.022245262 -0.012756214
0.073186614 0.02217916 -0.01272895
0.073182531 0.022108242 -0.012701439
0.073130354 0.021869361 -0.01266333
0.073047481 0.02151981 -0.012616852
0.073061094 0.021449711 -0.012564625
0.072995372 0.021214115 -0.012547303
0.073015667 0.02113726 -0.012482462
0.073014461 0.021075921 -0.012455328
0.073017053 0.020998245 -0.012415204
0.073029429 0.020933591 -0.012367293
0.07302957 0.020800028 -0.012304407
0.072938278 0.020719638 -0.012396231
0.072868586 0.020490151 -0.012387341
0.072822921 0.020378042 -0.012399506
0.072848596 0.02029985 -0.012326419
0.07254532 0.019732002 -0.012490146
0.072552219 0.019524887 -0.012383148
0.072504036 0.019423664 -0.012403932
0.072481215 0.019367622 -0.012410014
0.072497323 0.019286644 -0.012349161
0.072375134 0.019085392 -0.012428051
0.072297618 0.018801333 -0.012404707
0.072293952 0.018540286 -0.012287376
0.07203009 0.01754679 -0.012195402
0.071937896 0.017137896 -0.012134274
0.071942382 0.016874881 -0.012004457
0.072045162 0.016562121 -0.011711822
0.071819633 0.016077977 -0.01180451
0.071628645 0.015975751 -0.012027523
0.071533553 0.015557311 -0.011966011
0.071508221 0.015512126 -0.011980718
0.071476094 0.015396712 -0.011972156
0.071469292 0.015326478 -0.011948823
0.071454778 0.015278665 -0.011946982
0.071444027 0.015214519 -0.011932149
0.071472488 0.015068886 -0.011823378
0.071418986 0.014902236 -0.011821084
0.07135319 0.014733421 -0.011835203
0.071192518 0.014156368 -0.011792262
0.071211524 0.014084965 -0.011731784
0.07114464 0.013788017 -0.011687279
0.071083061 0.013556553 -0.01166602
0.071057722 0.013511378 -0.011680787
0.070682339 0.012447555 -0.011713983
0.070732392 0.012363413 -0.011603505
0.070712775 0.012049773 -0.011484083
0.070684522 0.011995062 -0.011498523
0.070644692 0.011691494 -0.011412503
0.070636645 0.011626709 -0.011393541
0.070519879 0.011424138 -0.011464128
0.07055378 0.011277176 -0.011347
0.070486642 0.011180595 -0.011396931
0.070424072 0.010754207 -0.011285549
0.070382558 0.010646231 -0.011293778
0.070375964 0.010586211 -0.011274952
0.07029815 0.010358689 -0.011278548
0.07024309 0.010254029 -0.011307563
0.070250034 0.010190705 -0.011268009
0.070295945 0.010102447 -0.011161404
0.070286639 0.010043074 -0.01114676
0.070057154 0.0095650498 -0.011247937
0.070053354 0.0094375666 -0.011193492
0.069958031 0.0092194816 -0.011226365
0.069860861 0.0086218044 -0.01108371
0.069881529 0.0084215794 -0.010960373
0.069836348 0.0080525596 -0.010851272
0.069527276 0.0076093893 -0.011081738
0.069532938 0.007407716 -0.010979052
0.069522448 0.0072870031 -0.010937277
0.069506481 0.0072344192 -0.010935244
0.06951052 0.0071615172 -0.010895312
0.069584936 0.0070714261 -0.010747442
0.069575787 0.0068784794 -0.010669855
0.069477543 0.0068614171 -0.010801232
0.069433056 0.0068106777 -0.010840524
0.069411665 0.0067594121 -0.010846794
0.069383875 0.0065145488 -0.010771298
0.069255166 0.0061864932 -0.010799917
0.06927301 0.0060537104 -0.010712259
0.069190226 0.0056373952 -0.010634276
0.069099069 0.0054234443 -0.010663216
0.068926983 0.0051727695 -0.010789697
0.068934008 0.0050426512 -0.010718644
0.068894953 0.0044256076 -0.010484417
0.06888295 0.0043669026 -0.010473895
0.068887234 0.0042374451 -0.010407081
0.068890028 0.0041700136 -0.010371456
0.068852834 0.0039325608 -0.010312756
0.068835914 0.0036182906 -0.010189268
0.068607874 0.0031450409 -0.010290633
0.068523414 0.0029242788 -0.010306849
0.068507232 0.0028614812 -0.01030031
0.068510301 0.0027374532 -0.010237752
0.068345591 0.0022333125 -0.010234799
0.090188712 -0.0068820314 0.025033534
0.090164602 -0.0069326172 0.025023086
0.090088308 -0.0070115486 0.024951853
0.090005122 -0.0070939329 0.024872512
0.089954421 -0.0071842535 0.024842985
0.08994288 -0.00728931 0.024875946
0.089828983 -0.0076260935 0.024872426
0.089641981 -0.0079450365 0.024756791
0.089629479 -0.0081011895 0.024812378
0.089520499 -0.0083929673 0.024794726
0.089480162 -0.0084396005 0.024759365
0.089422546 -0.0084666358 0.024690336
0.089377522 -0.0086148307 0.024695998
0.089347593 -0.0088283587 0.024753748
0.089269839 -0.0089120725 0.024682768
0.089181006 -0.009147143 0.024667071
0.089025751 -0.0093711158 0.02455193
0.088952146 -0.0094507243 0.024484877
0.088848487 -0.0094664674 0.024345199
0.088783003 -0.0095480345 0.024290575
0.088798068 -0.0096133556 0.02434261
0.088851295 -0.0097444877 0.024479648
0.088572495 -0.010241278 0.024317309
0.088539027 -0.010284468 0.024290122
0.088520333 -0.010336362 0.024287917
0.088503137 -0.010383544 0.024285691
0.088477075 -0.010536371 0.024320439
0.088346444 -0.010822879 0.024269568
0.088354841 -0.010881413 0.024308994
0.088376775 -0.010943281 0.024369141
0.088386901 -0.011053608 0.024435315
0.088297114 -0.011196002 0.024374746
0.088202611 -0.011373201 0.024323858
0.088105887 -0.011452271 0.024223732
0.088068455 -0.011489369 0.024188049
0.08807984 -0.011605139 0.024258535
0.088026695 -0.011751346 0.02425177
0.088001356 -0.011796522 0.024237005
0.087860905 -0.012029261 0.024147019
0.087837026 -0.012069633 0.024132065
0.087814361 -0.012115446 0.02412143
0.087756827 -0.012209235 0.024083845
0.087713972 -0.012244974 0.024039807
0.087676823 -0.01233861 0.024031065
0.087666251 -0.01239253 0.024041342
0.087611392 -0.012486976 0.024007821
0.087507047 -0.012610422 0.023917763
0.087484397 -0.012656236 0.023907127
0.087460309 -0.012706834 0.02389673
0.087368309 -0.012894914 0.023854475
0.087315887 -0.01293347 0.023798198
0.087278448 -0.012970529 0.023762459
0.087262489 -0.013023123 0.023764549
0.087245256 -0.013070284 0.023762209
0.087219916 -0.01311543 0.023747448
0.087178312 -0.013156623 0.023707777
0.087099582 -0.013291451 0.023659365
0.087000437 -0.013426419 0.023582056
0.086958826 -0.013467602 0.023542328
0.08689703 -0.013498721 0.023469258
0.086824693 -0.01358378 0.023406576
0.086757764 -0.013670119 0.023352142
0.086654924 -0.013855564 0.023293277
0.086591251 -0.014055714 0.023296902
0.086508073 -0.0141381 0.023217557
0.086368784 -0.014309458 0.023100389
0.08364027 -0.017663857 0.020803839
0.083605349 -0.017711809 0.020776782
0.083484538 -0.017841477 0.020666266
0.083464615 -0.017887972 0.020659801
0.08310663 -0.018329449 0.020359172
0.082413591 -0.019223176 0.019795431
0.082385331 -0.019277887 0.019780992
0.082358725 -0.01931762 0.019761911
0.082311735 -0.019357465 0.019713942
0.082257859 -0.019400796 0.019657856
0.082222946 -0.019448757 0.019630857
0.082205713 -0.019495919 0.019628519
0.082170814 -0.019543882 0.019601518
0.082125239 -0.019578943 0.019553302
0.082086168 -0.01963103 0.019522309
0.082054168 -0.019669427 0.019494992
0.082023211 -0.019723499 0.019476425
0.081875809 -0.019892901 0.01934683
0.081795603 -0.020032492 0.01929855
0.08170826 -0.020119 0.019215219
0.081650712 -0.020212777 0.019177578
0.081335559 -0.020618534 0.018920926
0.081314184 -0.020669799 0.018914655
0.081162617 -0.020843297 0.018781073
0.081102349 -0.020936433 0.018739313
0.080924265 -0.021216474 0.018618086
0.080855869 -0.021307576 0.018563792
0.080788478 -0.021347603 0.018486977
0.080690853 -0.021544591 0.018440975
0.080648035 -0.021580342 0.01839699
0.080589972 -0.021627784 0.018336855
0.080505811 -0.021761293 0.018280143
0.080472164 -0.021814698 0.018257452
0.080360942 -0.021941591 0.018159226
0.080331422 -0.02199086 0.018140476
0.080308773 -0.022036674 0.018129833
0.080283247 -0.022092074 0.018119629
0.080234975 -0.022126496 0.018067285
0.080198616 -0.022179235 0.018040476
0.080166593 -0.022217648 0.018013097
0.080149166 -0.022274995 0.018015265
0.080121115 -0.022319503 0.01799638
0.080022953 -0.022403346 0.01789644
0.079973534 -0.02249912 0.017871287
0.079945482 -0.022543628 0.017852398
0.079896033 -0.02263939 0.017827185
0.079861119 -0.022687349 0.01780019
0.079820774 -0.022733986 0.017764829
0.079787314 -0.022777174 0.01773764
0.079759054 -0.022831885 0.017723201
0.079700246 -0.022920249 0.017681245
0.079666786 -0.022963399 0.017654002
0.079621024 -0.023008725 0.017610397
0.079500504 -0.023194961 0.017526815
0.079363517 -0.023387447 0.017422775
0.079324923 -0.023485865 0.017414281
0.079206832 -0.023616243 0.017307933
0.079146571 -0.02370934 0.017266119
0.079123728 -0.02376538 0.017260039
0.079083584 -0.023801798 0.017220179
0.078972153 -0.023938894 0.017126396
0.078948066 -0.023989521 0.017115999
0.07892397 -0.02404011 0.017105551
0.078901343 -0.024085935 0.017094968
0.078824826 -0.02417508 0.017028239
0.078645281 -0.024459895 0.016907211
0.078607678 -0.024507217 0.016876085
0.078548655 -0.024605755 0.01683858
0.078512765 -0.024704844 0.016834212
0.078484714 -0.02474934 0.016815268
0.078457899 -0.024799287 0.016800694
0.07841631 -0.024840482 0.016761025
0.078311577 -0.024984358 0.016679969
0.078280792 -0.025028203 0.016656846
0.078259431 -0.025079481 0.016650628
0.078217834 -0.025120674 0.016610961
0.078172065 -0.025165949 0.016567245
0.078121163 -0.025266513 0.016542217
0.078041002 -0.025406126 0.016494054
0.078016907 -0.025456715 0.016483601
0.077913582 -0.025595807 0.016402306
0.077879943 -0.025649223 0.016379677
0.077835903 -0.025746321 0.016362704
0.077731334 -0.025879972 0.016277092
0.077701837 -0.025929254 0.016258396
0.07767234 -0.025978532 0.016239703
0.077631027 -0.026076291 0.016226968
0.077591933 -0.026128367 0.016195921
0.07754223 -0.026167575 0.016143827
0.077487364 -0.026262019 0.016110308
0.077455163 -0.026310619 0.016087437
0.077427112 -0.026355125 0.016068552
0.077381648 -0.026457019 0.016051885
0.07734672 -0.026504971 0.016024828
0.077246115 -0.026644705 0.015947655
0.077230155 -0.026697328 0.015949739
0.077171132 -0.026795866 0.015912235
0.077140369 -0.026839726 0.015889166
0.076958127 -0.02712387 0.015764013
0.076929882 -0.027178593 0.01574963
0.076888293 -0.027219784 0.015709963
0.076802485 -0.027368281 0.015657943
0.076785266 -0.027415454 0.015655659
0.076750338 -0.027463406 0.015628604
0.076716878 -0.027506556 0.015601358
0.076622933 -0.027653087 0.015536854
0.076603003 -0.027699579 0.015530391
0.076578923 -0.027750179 0.015519998
0.076546706 -0.027798807 0.01549712
0.076395229 -0.028039126 0.015395035
0.076363027 -0.028087728 0.01537216
0.076340362 -0.028133571 0.015361517
0.076276228 -0.02828737 0.015342704
0.076258808 -0.028344728 0.015344929
0.076184995 -0.028434549 0.015282381
0.076111197 -0.028524373 0.015219832
0.076095216 -0.028576946 0.015221807
0.075967818 -0.028766638 0.015130117
0.075934172 -0.028820042 0.015107429
0.07590612 -0.028864548 0.015088542
0.075890146 -0.028917162 0.015090571
0.075872913 -0.028964294 0.015088232
0.07585153 -0.02901556 0.015081963
0.075816616 -0.029063523 0.015054968
0.075800642 -0.029116107 0.015056998
0.075747043 -0.029215993 0.015027793
0.075678654 -0.029307134 0.014973548
0.075641029 -0.029354418 0.014942373
0.075627781 -0.02940768 0.014948582
0.075602427 -0.029452855 0.014933819
0.075570226 -0.029501457 0.014910944
0.075543419 -0.029551404 0.014896373
0.075528711 -0.02960944 0.014902772
0.075506046 -0.029655274 0.014892074
0.075487398 -0.029707201 0.014890041
0.075451203 -0.029749699 0.014858615
0.075373255 -0.029843658 0.014792134
0.075327769 -0.029945511 0.014775414
0.075189814 -0.030189123 0.014693998
0.075123928 -0.030291159 0.014648432
0.075062439 -0.030378822 0.014602363
0.075003706 -0.030533969 0.014591848
0.074972741 -0.030588012 0.01457329
0.074923016 -0.030627238 0.014521133
0.074890807 -0.03067584 0.014498258
0.074842647 -0.030777063 0.014477471
0.07481458 -0.03082156 0.014458528
0.074795894 -0.030873494 0.014456379
0.074779935 -0.030926079 0.014458414
0.074761249 -0.030978024 0.014456321
0.07470911 -0.031073118 0.014426986
0.074662186 -0.031179775 0.014410454
0.074628718 -0.031222964 0.014383265
0.074593797 -0.031270914 0.014356209
0.07456971 -0.031321514 0.014345814
0.074541442 -0.031376254 0.014331372
0.074509449 -0.031414643 0.014303994
0.074490763 -0.031466573 0.014301846
0.074433014 -0.031570576 0.014268767
0.074384823 -0.031671781 0.014247867
0.074332401 -0.031710338 0.014191588
0.074301466 -0.031764403 0.014173141
0.074281521 -0.031810887 0.014166623
0.074270979 -0.0318648 0.014177018
0.074261859 -0.031913914 0.014187105
0.074247152 -0.031971969 0.014193447
0.074160084 -0.032115027 0.014137113
0.074144103 -0.032167599 0.014139089
0.07406345 -0.032260887 0.014068483
0.074038088 -0.032306053 0.014053666
0.074011311 -0.032356013 0.014039144
0.073969796 -0.032463986 0.014030916
0.073932439 -0.032567836 0.014026679
0.073901683 -0.032611668 0.014003614
0.073869467 -0.032660298 0.013980738
0.073831849 -0.032707579 0.013949562
0.073828146 -0.032758053 0.013968007
0.073699571 -0.033009075 0.013903389
0.073672786 -0.033059034 0.013888869
0.0736541 -0.033110969 0.013886718
0.073642291 -0.033159427 0.013892744
0.07359536 -0.033266082 0.013876213
0.073567308 -0.033310592 0.013857325
0.073552601 -0.033368647 0.013863668
0.07353808 -0.033416428 0.013865515
0.073436283 -0.033617526 0.013815464
0.073351935 -0.033761255 0.013763254
0.073303774 -0.033862479 0.013742462
0.073279679 -0.033913098 0.013732008
0.0732342 -0.034014951 0.013715291
0.073211372 -0.034070991 0.01370921
0.073159218 -0.034166113 0.013679872
0.073049329 -0.03436524 0.013617456
0.072986625 -0.034514263 0.013598453
0.072970644 -0.034566835 0.013600432
0.072954692 -0.034619432 0.013602522
0.072926432 -0.034674145 0.013588079
0.072866172 -0.034767278 0.013546315
0.072850205 -0.034819864 0.013548351
0.07282611 -0.034870483 0.013537897
0.072780631 -0.034972332 0.013521177
0.072759241 -0.0350236 0.013514905
0.072735161 -0.035074227 0.013504508
0.072692394 -0.035176761 0.01349197
0.072675161 -0.035223894 0.013489635
0.072605602 -0.035376385 0.013462575
0.072524026 -0.03558756 0.013445927
0.072504088 -0.035634052 0.013439465
0.072482705 -0.035685316 0.013433196
0.072439954 -0.035787851 0.013420653
0.072390512 -0.035883613 0.01339544
0.072350174 -0.035930257 0.013360139
0.072319195 -0.035984319 0.013341518
0.07228186 -0.03608818 0.013337337
0.072125763 -0.03649684 0.013307711
0.07210584 -0.036543332 0.013301244
0.072018303 -0.036640067 0.013222473
0.07200361 -0.036698103 0.013228876
0.071995959 -0.03674246 0.013238829
0.071955889 -0.036845662 0.013230408
0.071904995 -0.036946196 0.013205388
0.07188759 -0.037003562 0.013207672
0.071870342 -0.037050724 0.013205329
0.071824871 -0.037152577 0.01318861
0.071798079 -0.037202526 0.013174036
0.071773991 -0.037253153 0.013163637
0.07175114 -0.037309185 0.013157506
0.071692884 -0.037510652 0.013169428
0.071663372 -0.037559919 0.013150677
0.071635127 -0.037614644 0.013136296
0.071526952 -0.037865549 0.01310057
0.071505569 -0.037916817 0.013094297
0.071441419 -0.038070615 0.013075484
0.071426712 -0.038128652 0.013081891
0.071364023 -0.038277678 0.013062883
0.071334504 -0.038326979 0.01304413
0.071307726 -0.038376905 0.013029618
0.071252912 -0.038538121 0.013027487
0.071222432 -0.038638547 0.013031354
0.071205206 -0.038685687 0.013029078
0.071171574 -0.0387391 0.013006447
0.07114476 -0.038789041 0.012991818
0.071114264 -0.038889434 0.012995689
0.071071506 -0.038991965 0.012983148
0.071023323 -0.039093181 0.012962304
0.071012765 -0.039147116 0.012972638
0.071002215 -0.039201014 0.012982975
0.070980832 -0.039252281 0.012976703
0.07093931 -0.039360255 0.012968477
0.070913963 -0.039405428 0.01295371
0.070896544 -0.039462786 0.012955938
0.070871197 -0.039507963 0.012941167
0.070847116 -0.03955856 0.012930775
0.07082843 -0.039610494 0.012928627
0.070820577 -0.039665066 0.012943086
0.070788376 -0.039713696 0.012920205
0.070755184 -0.039813422 0.012919962
0.070694 -0.040024456 0.012932211
0.070686162 -0.040079035 0.012946723
0.070653938 -0.040127657 0.012923792
0.070594952 -0.040226221 0.012886399
0.070485584 -0.040538467 0.012877804
0.070464186 -0.04058972 0.012871475
0.070418723 -0.040691614 0.012854813
0.07034944 -0.040900633 0.012854638
0.070340313 -0.04094978 0.01286472
0.07032977 -0.041003693 0.012875117
0.070253618 -0.041216195 0.012866828
0.070239097 -0.041264005 0.012868671
0.070220426 -0.041315943 0.012866519
0.07017199 -0.041360602 0.012818794
0.070153296 -0.041412506 0.01281665
0.07015086 -0.041468423 0.012839405
0.070123076 -0.041569494 0.012847455
0.070068307 -0.041730694 0.012845388
0.070056498 -0.041779183 0.012851406
0.069973394 -0.041928358 0.012803566
0.069952294 -0.042036191 0.012824234
0.069941707 -0.042090103 0.012834448
0.069932625 -0.042139251 0.012844711
0.06990438 -0.042193964 0.012830267
0.069868006 -0.042246699 0.01280346
0.069845349 -0.042292502 0.012792766
0.069830649 -0.042350538 0.012799168
0.069808021 -0.042396393 0.012788581
0.069759823 -0.042497598 0.012767675
0.069762804 -0.042554811 0.012798803
0.069761813 -0.042605925 0.012821371
0.069741696 -0.042662647 0.012819467
0.069721758 -0.042709138 0.012813007
0.069687389 -0.042870194 0.012839833
0.069566943 -0.043123253 0.012787746
0.069545567 -0.04317452 0.012781477
0.069420964 -0.043642227 0.012824239
0.069364935 -0.043798015 0.012817848
0.069343567 -0.043849289 0.012811636
0.069317035 -0.043955803 0.012824003
0.069279678 -0.044059671 0.012819701
0.069214076 -0.044218246 0.012801084
0.069193438 -0.044372432 0.012844188
0.069166645 -0.044422347 0.012829617
0.069137424 -0.044528224 0.012837856
0.069108173 -0.044634059 0.012846043
0.069089517 -0.044685967 0.012843896
0.069077954 -0.04479102 0.012876861
0.069075525 -0.044846911 0.012899619
0.069046021 -0.044896193 0.012880926
0.06899783 -0.044997424 0.012860019
0.068979174 -0.04504934 0.012857928
0.068915017 -0.045203138 0.012839119
0.068899058 -0.045255721 0.012841152
0.06889119 -0.045310318 0.012855602
0.068887502 -0.045360766 0.012874056
0.068862237 -0.045472726 0.012890726
0.06885729 -0.045517731 0.012904867
0.068830296 -0.045577895 0.012894796
0.068802245 -0.045622401 0.012875907
0.068751641 -0.045779511 0.012877883
0.06870003 -0.045987733 0.01290237
0.068681359 -0.046039674 0.012900276
0.068630464 -0.046140239 0.01287525
0.068621635 -0.046245907 0.012912339
0.06860964 -0.04630461 0.012922861
0.068582118 -0.046462242 0.012957794
0.06857156 -0.046516143 0.012968134
0.068557054 -0.04656399 0.012970027
0.068528779 -0.046618704 0.012955588
0.06849388 -0.046666667 0.012928589
0.068471506 -0.046769045 0.012944886
0.068454087 -0.046826404 0.012947114
0.068461239 -0.046879515 0.012982163
0.068446994 -0.046983894 0.013010941
0.068433732 -0.047037154 0.013017157
0.068396352 -0.047140993 0.013012862
0.068374977 -0.047192261 0.013006592
0.068364419 -0.047246195 0.013016922
0.06833937 -0.047347918 0.013029157
0.068277441 -0.04745603 0.012992028
0.068225846 -0.047664288 0.01301657
0.06822785 -0.047772616 0.013070262
0.068198606 -0.047878455 0.013078447
0.068189509 -0.047927581 0.01308859
0.068181641 -0.047982153 0.013103054
0.068159014 -0.048028007 0.013092465
0.068085298 -0.048184596 0.013061417
0.068069331 -0.048237175 0.013063451
0.068047933 -0.048288435 0.013057124
0.068037391 -0.048342377 0.013067512
0.068033963 -0.048449378 0.013112843
0.068031549 -0.048505276 0.01313566
0.068019718 -0.048553754 0.013141626
0.068009175 -0.048607696 0.013152016
0.067987777 -0.048658952 0.013145685
0.067966409 -0.048710227 0.01313947
0.06794402 -0.048812598 0.013155717
0.067928068 -0.048865195 0.013157805
0.067928888 -0.049034894 0.01323862
0.067921236 -0.049079221 0.01324858
0.067849956 -0.049179934 0.013194712
0.067815296 -0.049284454 0.013194597
0.067769118 -0.049493998 0.013227441
0.067751706 -0.049551386 0.013229661
0.067739874 -0.049599834 0.01323563
0.067736462 -0.04970688 0.013281014
0.067710929 -0.049762249 0.013270813
0.067680977 -0.049975805 0.01332856
0.067560099 -0.050393045 0.013352873
0.067552432 -0.050437398 0.013362829
0.067540437 -0.050496101 0.013373351
0.06752076 -0.050599162 0.013393828
0.067504816 -0.050651755 0.013395917
0.06748341 -0.050703011 0.013389595
0.067474335 -0.050752148 0.013399793
0.067455918 -0.050860651 0.013424583
0.067450777 -0.050915901 0.013443219
0.067430131 -0.051070046 0.01348627
0.067340702 -0.051335797 0.013484136
0.067286134 -0.05148682 0.013477614
0.067266747 -0.051646419 0.013525038
0.067207024 -0.051852677 0.013537094
0.067180224 -0.0519026 0.013522525
0.067164235 -0.051955201 0.013524493
0.067194775 -0.052065387 0.013619564
0.06718152 -0.052118648 0.013625778
0.067168251 -0.052171901 0.013631931
0.067161843 -0.052221671 0.013646199
0.067126751 -0.052279886 0.013623758
0.067101389 -0.052325025 0.01360894
0.06710311 -0.052376814 0.013635688
0.067084007 -0.052592978 0.013710046
0.067074902 -0.052642107 0.013720191
0.067053787 -0.052749939 0.013740862
0.067012742 -0.052904267 0.013755068
0.067002185 -0.052958164 0.013765403
0.066991635 -0.053012099 0.013775737
0.066956028 -0.053167753 0.013798302
0.066944472 -0.053272769 0.013831211
0.066933915 -0.053326689 0.013841486
0.066913821 -0.053593978 0.013938468
0.066862926 -0.053694546 0.013913441
0.066882633 -0.053802066 0.013991909
0.06688831 -0.053859942 0.014027096
0.066868372 -0.053906433 0.014020635
0.066797376 -0.054063696 0.013993765
0.066784106 -0.054116949 0.013999922
0.06678167 -0.054172866 0.014022676
0.066741608 -0.054276049 0.014014321
0.06672439 -0.054323219 0.014012037
0.066704288 -0.054590497 0.014108964
0.066656113 -0.05469171 0.014088121
0.066649705 -0.054741509 0.014102386
0.066593684 -0.054897301 0.014096057
0.0665861 -0.055008441 0.014137451
0.066551223 -0.055266965 0.014209284
0.066527113 -0.055317588 0.014198894
0.066498905 -0.055582881 0.014283396
0.066488363 -0.055636816 0.014293725
0.066490076 -0.055688575 0.014320483
0.066472426 -0.055899967 0.014394648
0.066439509 -0.056056291 0.014421334
0.066431656 -0.056110863 0.01443579
0.066429235 -0.056166757 0.01445861
0.06638103 -0.056267962 0.014437711
0.066369221 -0.05631645 0.014443728
0.066376902 -0.056482658 0.014532604
0.066349126 -0.056583729 0.014540659
0.066331901 -0.056630902 0.014538374
0.06634029 -0.056689426 0.014577745
0.066293828 -0.056842431 0.014583645
0.066279598 -0.056946784 0.014612429
0.066273473 -0.057053156 0.014653691
0.066273764 -0.057109721 0.01468063
0.066256523 -0.057156853 0.014678294
0.066239104 -0.057214241 0.014680513
0.066228025 -0.057365607 0.014735857
0.06620992 -0.057530656 0.014787644
0.066177979 -0.057635855 0.014791704
0.066160738 -0.057682984 0.014789372
0.066161476 -0.057785891 0.01483869
0.066152193 -0.057845257 0.014853455
0.066134959 -0.057892419 0.01485111
0.066124149 -0.058100343 0.014933335
0.06606546 -0.058466069 0.015021766
0.066027127 -0.058621034 0.015040097
0.0660301 -0.058678251 0.015071224
0.065969422 -0.059146196 0.015204735
0.065997995 -0.059358619 0.015345003
0.065928973 -0.059624236 0.01537176
0.065891355 -0.059671521 0.015340585
0.065845422 -0.059937648 0.015400311
0.065828964 -0.060087711 0.015447407
0.065831929 -0.060144916 0.015478471
0.065860927 -0.060193084 0.015542233
0.065838084 -0.060249142 0.015536091
0.065823577 -0.060296964 0.01553799
0.065819688 -0.060357638 0.015561002
0.065820165 -0.060403977 0.015583381
0.065798059 -0.060562924 0.015626617
0.065762699 -0.060775131 0.015676064
0.065743029 -0.060878195 0.015696544
0.065731265 -0.061137252 0.015801448
0.065701067 -0.061294183 0.01583227
0.065692224 -0.061399911 0.015869346
0.065667883 -0.06160453 0.015930844
0.065660037 -0.061659101 0.0159453
0.065669887 -0.061712861 0.015984531
0.065678485 -0.061761208 0.016019451
0.065682918 -0.061813641 0.016050324
0.065675333 -0.061924778 0.016091723
0.0656581 -0.06197191 0.016089384
0.065650254 -0.062026493 0.016103901
0.065641165 -0.06207563 0.016114101
0.065656416 -0.062130727 0.016161578
0.065665022 -0.062179044 0.016196497
0.065649033 -0.062231649 0.016198471
0.065582179 -0.062384769 0.016175482
0.065591045 -0.062489644 0.016237283
0.065607555 -0.062550195 0.016289132
0.065602615 -0.062595196 0.016303264
0.065556414 -0.062804759 0.01633605
0.065541945 -0.063063152 0.016436838
0.065528691 -0.063116416 0.016443048
0.065532126 -0.063219965 0.016496489
0.065512463 -0.063323021 0.016516965
0.065483533 -0.063485444 0.016552206
0.065481275 -0.063531108 0.016570412
0.065506116 -0.063583404 0.016630176
0.065495834 -0.063693866 0.016667452
0.065482773 -0.063736916 0.016669162
0.065476172 -0.063796923 0.016687931
0.065479614 -0.063900486 0.016741432
0.065477386 -0.063946173 0.01675975
0.065459445 -0.064101018 0.016806973
0.065425776 -0.064154416 0.016784228
0.065463908 -0.064364024 0.016936734
0.065398552 -0.064722978 0.017012488
0.065382577 -0.064775564 0.017014524
0.065380186 -0.065042064 0.017136225
0.065344773 -0.065398052 0.01725306
0.065313816 -0.065452099 0.017234558
0.065319709 -0.06549976 0.017265238
0.065329552 -0.065553553 0.017304469
0.065317735 -0.065602012 0.017310496
0.065285787 -0.065707199 0.017314501
0.065310635 -0.065759502 0.017374326
0.065340877 -0.065813094 0.017442338
0.065249957 -0.066227444 0.017507842
0.065228574 -0.066278711 0.017501568
0.065222181 -0.066328488 0.017515896
0.065215081 -0.066485979 0.017579727
0.065240905 -0.066697739 0.017715756
0.065178491 -0.066903308 0.017723694
0.065196678 -0.066948846 0.017770905
0.06522274 -0.06700661 0.017834991
0.065205529 -0.06705375 0.017832704
0.06519226 -0.067107007 0.017838862
0.065177739 -0.067154817 0.017840702
0.065149993 -0.067466453 0.017947588
0.065146305 -0.067516908 0.017966092
0.064980447 -0.067938589 0.017928675
0.064902782 -0.068089083 0.017889131
0.064882636 -0.068145819 0.017887171
0.064868867 -0.068296522 0.017938394
0.064849235 -0.068399563 0.017958928
0.064850926 -0.068451345 0.017985623
0.0648802 -0.068556078 0.018076321
0.064846754 -0.068809852 0.01814796
0.064832054 -0.068867892 0.01815436
0.064820692 -0.068962678 0.018182706
0.064803757 -0.06906639 0.018207362
0.064795911 -0.069120973 0.018221878
0.064746507 -0.069427341 0.018295605
0.06474454 -0.069529578 0.018340744
0.064724408 -0.069586277 0.018338786
0.064712606 -0.069634743 0.018344812
0.064704739 -0.069689341 0.018359262
0.064702518 -0.069734991 0.01837758
0.064709648 -0.069788106 0.018412633
0.064708658 -0.069839224 0.018435206
